ply
format ascii 1.0
element vertex 1207
property float x
property float y
property float z
property uchar red
property uchar green
property uchar blue
end_header
-1.118946 -0.4655129 0.2681414 32 36 41
-1.029921 -0.1728578 0.4884212 41 28 0
-1.145036 0.1730533 -0.01324864 16 16 16
-1.091434 -0.5587266 0.06687252 8 8 0
-1.094537 -0.6077777 -0.02926263 32 24 16
-1.105102 -0.4912094 0.07482928 0 0 0
-1.086637 -0.6192985 0.05972553 57 36 8
-1.077341 -0.5823902 0.06657016 8 8 16
-1.101782 -0.4772772 0.08418184 8 8 0
-1.143095 -0.4852631 0.1158217 57 28 16
-1.101392 -0.5812786 -0.05069886 32 20 8
-1.140383 -0.6545864 0.3072133 8 12 16
-1.157552 -0.6427227 0.2796604 98 149 172
-1.150989 -0.6527408 0.3003966 0 4 0
-1.125671 -0.1360248 -0.06052848 32 28 8
-1.171002 -0.2758973 -0.006699752 32 64 74
-1.081408 -0.5309578 0.3759245 82 93 90
-1.095214 -0.560308 0.06344493 0 0 0
-1.116128 -0.4930757 -0.1042091 41 28 8
-1.036862 -0.1101362 0.496981 8 8 0
-1.087374 -0.3037505 0.1711369 0 8 0
-1.107339 -0.5565512 -0.02920226 32 24 24
-1.146432 -0.5174773 -0.1119722 32 24 16
-1.062453 -0.510758 0.1313711 32 24 8
-1.059416 -0.5675055 0.08673739 0 4 0
-1.418315 -0.6349266 -0.06730494 8 8 0
-1.094216 -0.3271008 0.1957456 74 44 0
-1.170589 -0.6508998 0.02102744 57 64 74
-1.058892 -0.5696861 0.08129536 8 4 8
-1.05774 -0.5284576 0.09906877 16 12 0
-1.119897 -0.460978 -0.09722981 41 32 16
-1.061407 -0.5201685 -0.1993889 65 40 8
-1.122192 -0.5766534 -0.04091622 32 24 8
-1.105896 -0.4729229 0.2283578 8 4 0
-1.110089 -0.5625734 -0.08978695 41 28 16
-1.099382 -0.3401256 0.1795142 24 12 8
-1.054233 -0.5541314 0.09968713 8 8 0
-1.072645 -0.5188566 0.03824611 8 8 0
-1.101076 -0.5576234 0.2081228 0 0 0
-1.025935 0.13791 0.4953101 0 0 0
-1.109819 -0.547375 0.3581959 16 16 24
-1.148715 -0.370896 0.03579833 49 68 82
-1.160007 -0.5118703 0.1398187 0 0 0
-1.023545 -0.07661454 0.4829232 0 4 0
-1.037855 -0.1186146 0.4878861 8 8 0
-1.09015 -0.6017289 0.04943815 8 8 8
-0.9659603 -0.146482 -0.1797382 65 40 8
-1.134162 -0.1333247 -0.1202576 24 16 0
-0.5750923 -0.109446 -0.06253617 8 12 0
-1.068978 -0.4962211 -0.06886317 57 40 16
-1.082571 -0.6018931 0.07888784 8 4 8
-1.047486 -0.5028146 0.10505 24 20 0
-1.107706 -0.4684536 0.07944513 156 121 106
-1.12955 -0.5037587 -0.02526724 8 8 0
-1.086132 -0.4844227 -0.1502333 16 16 8
-1.069702 -0.02551174 0.2924416 24 12 0
-1.099354 -0.5450765 -0.02861648 24 12 8
-1.128287 -0.5865695 -0.1156624 24 16 8
-1.136544 -0.4220954 0.2698225 90 109 41
-1.04413 -0.04809608 0.4177813 0 4 0
-0.9390175 0.03698544 -0.1854994 49 32 16
-1.118851 -0.5724104 0.2951682 0 4 0
-1.053182 0.1390786 0.5069462 8 8 0
-0.9538427 -0.09879155 -0.2431896 32 20 0
-1.034929 0.0691316 0.3459203 8 4 0
-1.06954 -0.0588235 0.3883115 16 8 0
-1.074096 -0.5205711 -0.06367272 8 8 8
-1.14436 -0.6135202 0.3353761 32 85 115
-1.357917 -0.6780604 -0.1435484 16 16 8
-1.075411 -0.5153368 0.04343425 0 4 0
-1.139336 -0.3607045 0.2944241 65 105 131
-1.068659 -0.2945132 0.1075538 8 8 0
-1.15457 -0.6211833 0.2897761 0 0 0
-1.069467 -0.3285342 0.1614008 0 4 0
-1.105546 -0.2825274 -0.1288777 8 8 0
-1.035573 -0.1662993 0.4507287 0 0 0
-1.096743 -0.6530355 0.04471852 16 12 0
-1.099519 -0.5993167 -0.01502915 255 255 255
-1.081851 -0.516903 -0.04590373 16 16 8
-1.08447 -0.6256438 0.06857391 0 0 0
-1.090093 -0.6219992 -0.0006913751 24 32 32
-1.043893 -0.6091337 0.09601094 24 16 16
-1.04783 -0.6074575 0.0974365 16 12 0
-1.132954 -0.6416506 0.002120891 16 20 24
-1.124549 -0.4910113 -0.02997909 41 20 8
-1.107306 -0.4853826 0.259739 0 0 0
-1.152732 -0.6809368 0.3086843 0 0 0
-1.074125 -0.3383274 0.1019886 8 0 0
-1.097691 -0.5079454 0.0444393 16 8 8
-1.127077 -0.09700648 0.1406654 0 0 0
-1.083585 -0.2884868 0.0708935 32 24 8
-1.137853 -0.6600205 0.2717463 16 48 57
-1.115629 -0.5637638 -0.09368983 32 24 8
-1.149182 -0.4073977 0.2475347 32 24 8
-1.140599 -0.6432409 0.3341847 8 24 24
-1.100173 -0.05690795 0.3622996 8 8 0
-1.115708 -0.4890973 -0.04082525 16 12 0
-1.073091 -0.02477406 0.1483055 74 56 16
-1.136078 -0.1277226 0.07921707 41 24 16
-0.9544661 0.1205808 -0.2118392 0 0 0
-1.145567 -0.3462728 -0.07268356 49 36 16
-1.107158 -0.5730032 -0.0732592 16 12 8
-1.119222 -0.6600826 0.2480737 16 32 41
-1.088055 -0.6114911 -0.03467008 8 8 0
-1.108541 -0.6432135 -0.02599491 8 4 0
-1.025334 -0.1002041 0.512841 0 0 0
-0.9668602 -0.5761054 -0.1818511 49 28 0
-1.087574 -0.4685887 -0.03313538 8 4 0
-1.125521 -0.4564893 0.2828821 106 93 24
-0.9951295 -0.439712 -0.1329329 32 16 8
-1.136842 -0.2824415 -0.005768285 8 8 0
-1.062024 0.1485553 0.229486 24 4 16
-1.117149 -0.5015911 -0.02933541 41 24 8
-1.113917 -0.2719765 0.08212842 0 4 0
-1.078033 -0.6346342 0.06060514 131 36 8
-1.165796 -0.09043919 0.003118072 41 32 24
-1.08479 -0.2597362 0.1426163 8 8 0
-1.168003 -0.106285 0.2323908 106 121 74
-1.093951 -0.4640211 0.1682586 49 48 49
-1.025371 -0.1524531 0.4688047 0 0 0
-1.155112 -0.4208306 -0.02238928 41 16 8
-1.123328 -0.4646031 0.1345825 57 52 57
-1.143841 -0.3825517 0.288393 131 153 180
-1.114936 -0.02851479 0.3016712 41 36 32
-1.157421 -0.7141793 0.1164173 8 12 16
-1.100603 -0.44447 -0.06796366 41 32 16
-1.042259 -0.2409213 -0.1178059 8 4 0
-1.107857 -0.5202551 -0.126925 24 20 8
-1.107064 -0.6541707 -0.001830602 0 4 0
-0.9768415 -0.5640959 -0.1902958 49 32 8
-1.100559 -0.5535316 -0.04626817 8 8 0
-1.083961 -0.5017739 0.04260038 16 4 0
-1.094704 -0.5089594 -0.0454347 8 4 0
-1.103927 -0.6049829 -0.01956364 32 60 98
-1.057287 -0.5255372 0.103447 16 12 0
-1.131196 -0.4093956 0.2794034 65 72 74
-1.121092 -0.446539 0.1488944 8 8 0
-1.12965 -0.7073334 0.1813051 0 0 0
-1.041457 -0.6543024 0.06407972 0 4 8
-1.101632 -0.6910277 0.3510039 0 4 0
-1.118714 -0.6644416 0.3516625 8 8 8
-1.071131 -0.6458633 -0.03372343 16 12 0
-1.070689 -0.3096705 0.04572779 41 48 49
-1.080346 -0.7047095 0.2223822 8 12 8
-1.0615 -0.5279882 0.1043642 8 8 0
-1.117279 -0.6452665 -0.0107906 16 12 8
-1.163449 -0.3343641 0.08325029 0 0 0
-1.071595 -0.6673144 0.06595346 8 4 0
-1.125273 -0.7213952 0.3379577 8 20 24
-1.120337 -0.02837675 0.1462581 0 4 0
-1.083391 -0.6828035 0.02498668 16 8 0
-1.094945 -0.6939273 -0.01483394 57 64 32
-1.1354 -0.7218047 0.2517105 0 4 0
-1.149099 -0.7308217 0.1471294 8 20 24
-1.138209 -0.2620115 -0.04710004 8 8 0
-1.103889 -0.5226506 -0.1042185 16 12 8
-1.02059 -0.6530957 0.09836844 8 8 0
-0.06292899 -0.04745976 0.01251769 16 12 0
-1.095616 -0.5309455 0.3658474 32 36 32
-1.102942 -0.4827095 -0.02878332 24 12 0
-1.075574 -0.6241366 0.03588468 8 4 0
-1.127367 -0.667985 0.3501342 8 16 16
-1.10364 -0.3464477 0.08921127 0 0 8
-1.130388 -0.7187222 0.2973424 0 8 8
-1.083799 -0.6426323 -0.07885387 16 8 0
-1.184967 -0.3667754 -0.03090378 24 12 0
-1.130877 -0.6572188 0.2830086 8 12 8
-1.076559 -0.01404338 0.2579193 16 8 0
-1.091381 -0.543063 0.3607417 8 4 0
-1.071653 -0.2591629 0.09164215 0 4 0
-1.109336 -0.5581894 -0.09996236 41 32 16
-1.144977 -0.009223471 0.1060509 8 4 0
-0.4350869 -0.144753 -0.003453282 32 16 8
-1.101764 -0.5806167 -0.03360812 16 12 0
-1.174863 -0.4751589 -0.0006456497 41 48 57
-1.152912 -0.3291485 -0.1049148 32 28 16
-1.110128 -0.1296165 0.1381427 16 8 0
-1.105485 -0.5790311 -0.02848683 32 28 16
-1.131572 -0.1318931 -0.03862883 8 4 0
-1.067312 -0.09451848 0.3275987 8 0 0
-0.6048303 -0.3803517 -0.01399299 24 20 8
-0.06635617 -0.09586155 0.0145769 8 8 0
-0.185588 -0.1342266 0.00803365 24 12 8
-0.08771532 -0.09918287 0.01293492 32 24 8
-0.008499672 -0.06459703 0.01797386 8 8 0
-0.1213297 -0.08722626 0.009059609 24 20 8
-1.192113 0.03303846 0.05913527 90 44 24
-1.201567 0.1125022 0.02191544 16 12 0
-1.06903 0.297932 0.1245736 41 40 49
-1.118721 0.2103581 0.02559637 65 44 16
-1.102005 0.2659154 0.07508136 246 222 139
-1.102595 0.2650154 0.08167724 255 250 148
-1.096094 0.2906923 0.08412798 164 60 24
-1.0974 0.2951927 0.05578256 82 32 41
-1.090544 0.3181533 0.06683885 8 28 24
-0.997099 0.281246 0.1452607 16 12 8
-1.048787 0.4311037 0.1375635 41 40 41
-1.084632 0.3344706 0.03924253 49 40 32
-1.073071 0.3315684 0.1906227 0 20 41
-1.067842 0.3640422 0.1355487 16 52 90
-1.07152 0.3570678 0.1624527 123 137 148
-1.088879 0.3315116 0.01777922 41 36 32
-1.079654 0.4208715 0.05232804 90 40 41
-1.049026 0.415103 0.1864107 49 48 41
-1.084689 0.3449624 0.04831102 74 32 41
-1.092986 0.351307 0.05244617 115 68 24
-1.089462 0.3852623 0.04212905 106 109 106
-1.082606 0.3370889 0.07845073 106 129 156
-1.0906 0.3158301 0.04052407 49 24 32
-1.090152 0.3125102 0.06696276 131 109 82
-1.081193 0.3170775 0.1056579 41 40 32
-1.109522 0.3176523 0.03092002 57 56 41
-1.095522 0.3051098 0.07094179 41 32 24
-1.093845 0.3042001 0.09311505 57 64 65
-1.089145 0.2830079 0.1081219 74 64 41
-1.08995 0.2828025 0.1016311 65 125 164
-1.086024 0.2548099 0.1062 106 105 106
-1.1053 0.2649876 0.02830523 197 149 57
-1.082737 0.2307435 0.1426443 49 44 49
-1.140984 0.249634 0.02748563 57 28 0
-1.121464 0.2094533 0.04861689 65 28 32
-1.05928 0.3453275 0.1458118 90 109 74
-1.089928 0.385982 0.05082707 90 97 90
-1.113911 0.2063216 0.02680782 16 16 8
-1.115591 0.1985359 0.0246067 74 52 24
-1.113158 0.2310808 0.07269824 172 137 82
-1.118439 0.1935948 0.1261245 8 28 16
-1.115495 0.1981931 0.03824792 106 68 0
-1.12064 0.2097328 0.06550944 16 36 32
-1.104927 0.2157319 0.09601801 74 125 164
-1.114825 0.1917853 0.05491261 24 20 16
-1.109353 0.191872 0.02752661 16 12 8
-1.115342 0.1901704 0.1175989 57 80 82
-1.093869 0.3085116 0.07062925 16 32 41
-1.110822 0.1988939 0.02705637 16 12 0
-1.110525 0.2378843 0.07980726 222 194 74
-1.162186 0.1771623 0.06851152 32 28 16
-1.109969 0.139119 0.0621699 8 8 8
-1.107173 0.1365283 0.07129557 32 44 41
-1.156005 0.1067812 0.08924712 49 28 16
-1.118741 0.211331 0.07192665 82 109 49
-1.118027 0.2050227 0.0197798 16 20 32
-1.176769 0.07523213 0.08041617 24 20 8
-1.110932 0.1868558 0.1268948 8 32 24
-1.180512 0.04164609 0.02190569 57 56 24
-1.115637 0.2339207 0.05473742 74 32 16
-1.084209 0.3305103 0.07173339 106 129 139
-1.113332 0.2206073 0.04722964 131 149 131
-1.081619 0.405552 0.03968469 16 12 16
-1.062021 0.3425608 0.1196598 57 68 74
-1.11197 0.1970849 0.1102559 0 8 0
-1.089542 0.3162273 0.0867405 8 12 16
-1.215662 0.07041609 0.02869493 8 8 8
-1.119692 0.03993434 0.1350836 255 238 222
-1.112508 -0.02475341 0.1030906 8 4 0
-1.161158 0.004845633 0.08190627 90 40 24
-1.077177 0.07933113 0.1499886 24 12 8
-1.114125 -0.04072953 0.1102454 32 28 8
-1.083446 0.3149809 0.1271842 41 40 32
-1.079529 0.4238108 0.04160962 106 52 32
-1.182008 -0.05011807 0.03180328 98 76 41
-1.106322 0.2131933 0.1255436 8 8 16
-1.17503 0.06984711 0.07048163 32 28 16
-1.10925 0.1423403 0.04909728 57 44 24
-1.165998 0.1744602 0.0646778 41 28 16
-1.066862 0.1661768 0.134379 8 8 8
-1.077714 0.3208723 0.1733958 32 52 65
-1.090245 0.3160217 0.07349937 82 101 41
-1.137029 -0.1036276 0.02710702 32 20 8
-1.064946 -0.1074039 0.1458298 8 4 0
-1.066055 -0.1051889 0.1431715 8 4 0
-1.178528 -0.0349596 0.07598153 32 20 8
-1.10611 0.2376713 0.1299718 32 44 41
-1.121641 0.202161 0.03671065 41 28 0
-1.063969 -0.03631219 0.1557271 8 4 0
-1.131053 -0.1309426 0.09221461 0 0 0
-1.140947 -0.1441045 0.06177111 0 0 0
-1.110239 0.1457316 0.01839989 255 255 255
-1.171261 -0.0620596 0.04452201 98 64 32
-1.062035 -0.08822274 0.1503688 8 8 0
-1.139998 -0.09273089 0.0199483 8 8 0
-1.117756 0.2238398 0.05897754 82 85 74
-1.113191 0.1422337 0.04247055 41 40 24
-1.135787 0.4504742 0.03655029 32 32 41
-1.139837 -0.1565364 0.08928602 8 4 0
-1.037091 0.4075812 0.1422228 90 68 32
-1.07739 0.3241571 0.1806864 49 60 41
-1.105734 0.2562089 0.08241124 213 117 49
-1.154246 -0.08847499 0.09442271 16 8 8
-1.104503 0.2161969 0.1014785 82 117 148
-0.9688595 0.4005757 0.1441449 32 16 16
-1.14726 -0.1830726 0.04150065 16 8 8
-1.119489 0.2106422 0.0852394 0 8 8
-1.168945 0.0827438 0.06897549 32 28 8
-1.182578 0.1044037 0.07512704 32 32 8
-1.167996 -0.1700221 0.1158521 180 230 238
-1.166648 0.1082638 0.07932746 16 20 0
-1.084447 0.3318144 0.04248958 57 80 106
-1.123154 -0.1866989 0.08312844 164 133 123
-1.133454 0.3296467 0.01623909 32 24 32
-1.151487 0.4625059 0.01684911 24 36 49
-1.117495 0.1904116 0.08017179 41 40 32
-1.077365 0.2541371 0.1305018 49 56 74
-1.175865 0.04137595 0.03419406 82 52 0
-1.070753 0.3543065 0.130245 205 194 123
-1.108207 0.1311073 0.06081931 16 12 8
-1.160422 0.2485939 0.03991841 32 4 0
-1.148682 0.4551367 0.0133042 0 4 8
-1.089783 0.3241098 0.03970285 115 125 115
-1.082385 0.309509 0.121865 115 97 49
-1.21578 0.412661 -0.004191322 16 44 41
-1.095862 0.2327923 0.118248 32 40 41
-1.086401 0.109932 0.1795963 8 4 0
-1.134881 0.4143674 -0.02673636 255 255 255
-1.147565 0.4010951 -0.05421249 16 16 16
-1.097814 0.4133676 -0.04439647 32 48 57
-1.096399 0.3960643 -0.0825131 32 44 49
-1.161209 0.2217148 0.01517526 49 28 0
-0.9246187 0.1538546 -0.1787484 0 4 0
-1.168276 0.2407161 0.01476797 82 48 8
-1.103603 0.1297482 0.0769821 16 12 8
-1.150461 0.3980067 0.03151418 8 12 16
-1.112756 0.2116881 0.04810612 148 149 123
-1.158828 0.2312592 0.01383855 16 16 8
-1.186099 0.2718626 0.006573702 16 12 16
-1.125741 0.2840109 -0.02213007 24 16 8
-1.140031 0.2858588 -0.02491467 0 4 0
-1.19383 0.2867102 0.008535481 0 0 0
-1.092335 0.2760923 0.0554564 24 20 16
-1.189844 0.3274549 -0.04092522 24 24 16
-1.112527 0.3649195 -0.05893113 98 129 32
-1.163136 0.3268425 -0.04999257 0 4 0
-1.082895 0.349162 -0.1047741 8 8 8
-1.083513 0.347709 -0.07417718 0 0 0
-1.080764 0.3139026 0.1134252 74 60 41
-1.08535 0.2993623 0.09672192 49 85 131
-1.086728 0.3754571 0.05825431 106 52 8
-1.110288 0.2135805 0.1219853 41 40 24
-1.078708 0.3466255 0.105571 189 198 189
-1.132091 0.4720738 0.01729489 123 28 24
-1.128396 0.4426091 0.02554767 8 12 16
-1.117723 0.1985981 0.1068999 32 24 16
-1.123068 0.2097254 0.03994884 131 125 123
-1.065964 0.4427293 -0.03631128 16 28 41
-1.079038 0.4065206 -0.02798189 57 76 65
-1.077077 0.4421182 -0.07679996 32 44 49
-1.068238 0.3630791 0.1422694 57 76 123
-1.086006 0.392915 0.04037753 24 28 24
-1.105121 0.006127473 0.1356358 8 8 0
-1.123235 0.1771559 -0.004802771 106 105 65
-1.124454 0.1969266 0.003020936 74 68 49
-1.045059 0.409414 0.1782768 49 85 115
-1.085924 0.3006043 0.118256 32 20 24
-1.137675 0.2598393 -0.02952263 24 16 16
-1.1271 0.2199578 -0.04466194 90 72 41
-1.134271 0.2311984 -0.05014104 74 60 41
-1.121462 0.2228117 -0.07481596 49 52 0
-1.124001 0.2073384 -0.09687222 24 28 8
-1.121431 0.1349181 -0.04900977 32 24 8
-1.121294 0.2707822 -0.06697451 32 12 8
-1.173254 0.2567298 -0.05405445 16 8 0
-1.099262 0.3080425 -0.1094778 16 12 8
-1.16175 0.2446126 -0.07445541 65 52 32
-1.065335 0.3765809 0.1383066 189 190 74
-1.063459 -0.05816081 0.1526022 16 8 8
-1.107766 0.1361907 0.06448744 41 40 32
-1.076933 0.3247651 0.1853352 16 16 16
-1.109684 0.2067729 0.08910898 41 48 24
-1.026438 0.4190163 0.1412167 49 28 0
-1.174613 0.07761639 0.08966732 41 32 16
-1.084636 0.3342591 0.06961263 123 141 156
-1.204728 0.1094437 0.009803255 16 24 16
-1.068441 -0.1109003 0.1403894 255 226 189
-1.112435 -0.06047687 0.1232257 255 230 222
-1.107213 0.0573744 0.1462687 8 4 0
-1.169936 0.08675069 0.06788156 106 68 24
-1.138923 0.02819575 0.02236512 156 85 24
-1.099848 0.3262869 -0.03596956 65 56 49
-1.115795 -0.04414111 0.1101736 32 24 0
-1.09127 0.3381369 -0.02450228 57 60 65
-1.142862 0.3230642 -0.04747116 49 44 32
-1.117021 0.2145932 0.08012693 16 20 0
-0.9235501 0.1461763 -0.1789961 0 0 0
-1.103705 0.1318874 0.09796286 32 40 41
-0.8836594 0.2569619 -0.1918327 16 16 8
-1.177906 0.1200611 -0.0100271 74 113 156
-1.113074 -0.02700652 0.1110481 205 178 131
-1.109629 0.2626901 0.04007957 255 109 24
-1.118759 0.1528117 0.0004362469 16 20 16
-1.119782 0.1571331 -0.004792939 82 76 49
-1.124708 0.1511634 -0.02291324 32 32 16
-1.160313 0.2294134 0.008762721 49 36 0
-1.179017 0.3199822 -0.01649521 0 4 0
-1.118818 0.1947757 -0.080252 24 12 8
-1.120652 0.1907506 -0.08163851 32 12 8
-1.123005 0.204717 -0.08716134 8 20 0
-1.124457 0.1388041 -0.1213685 0 0 0
-1.118886 0.1584931 -0.0833446 16 12 0
-1.125094 0.2037968 -0.08524536 49 52 8
-1.164271 0.2497645 -0.05465591 41 24 16
-1.113161 0.02642063 0.06886545 57 24 16
-1.092433 0.331775 -0.1011797 0 4 0
-1.082585 0.3330013 0.09387764 41 40 24
-1.219984 0.06562354 0.007093912 32 48 41
-1.10733 0.1342871 0.07096519 8 8 8
-1.191627 -0.007173852 0.03404592 32 32 24
-1.143339 -0.1142931 0.01590791 24 16 8
-1.119883 0.1109215 0.02275353 24 16 16
-1.176158 0.2616644 0.04351074 41 32 41
-1.11741 0.205568 0.02424234 74 52 24
-1.170009 -0.1969796 0.09496255 164 194 197
-1.125073 0.1748568 0.07657211 49 56 24
-1.225321 0.4036009 -0.008730189 0 4 0
-1.113827 0.1842714 0.04668582 131 85 32
-1.145595 -0.1847972 0.04204699 0 0 0
-1.128926 0.2243296 -0.07232171 57 48 0
-1.106377 0.2631085 0.03321047 189 36 0
-1.123871 0.2780992 -0.07382229 8 4 0
-1.187184 -0.06009829 -0.02227435 24 24 8
-1.045056 0.3534493 0.1126871 32 32 41
-1.054773 0.3988993 -0.1141098 41 36 24
-1.077635 0.41038 0.0534311 98 93 90
-1.081159 0.3073803 0.1068989 49 36 24
-1.209724 0.2783053 -0.002428229 0 4 0
-1.116744 0.1837175 0.1234165 32 40 49
-1.077662 0.3309372 -0.03456695 8 16 24
-1.217736 0.06652961 0.0007591253 8 8 16
-1.200752 0.04639812 -0.01898604 8 4 0
-1.182016 0.04637498 -0.00942659 49 32 16
-1.230095 0.06411724 -0.01946128 41 56 41
-1.083645 0.385052 0.05247871 106 105 98
-1.208331 0.1111865 0.001981413 65 80 41
-1.113016 0.1276806 -0.02211739 41 28 16
-1.121265 0.0861557 -0.05767998 8 8 0
-1.133172 0.1255164 -0.1142231 8 4 0
-1.123142 0.0766456 -0.04308807 24 24 16
-1.118131 0.1236626 -0.08093975 8 8 0
-1.121103 0.07529498 -0.05721836 32 24 8
-1.141736 0.2473424 0.03044055 238 68 24
-1.127216 0.2023347 -0.004087316 32 32 32
-1.0109 0.2497126 -0.1445978 0 4 0
-1.120911 0.2082422 -0.1036734 0 0 0
-1.111077 0.2382724 0.07791714 213 182 82
-1.117252 0.2196866 0.06915078 8 32 24
-1.072383 0.2768622 0.115757 32 36 41
-1.120874 0.4559903 -0.02787304 24 24 32
-1.089737 0.3297311 0.0199271 98 117 139
-1.073247 0.3282156 0.1289444 131 161 180
-1.096807 0.2781042 0.1852817 16 40 57
-1.070003 0.3322281 0.1621555 156 170 172
-1.148693 -0.2085993 0.007473438 16 16 8
-1.099356 0.1887403 0.1219234 8 44 32
-1.135219 -0.1507941 0.02706197 8 8 0
-1.073814 0.3382643 0.1666034 131 101 16
-1.077344 0.0487736 0.1780648 8 8 0
-1.059743 0.4395188 -0.04468898 24 28 32
-1.083674 0.315547 0.1747226 49 85 98
-1.129278 0.2113869 0.003140104 32 16 16
-1.203082 0.2594864 -0.01414088 24 16 0
-1.183637 0.2516702 0.002445022 65 64 41
-1.126193 0.2636308 -0.07588136 8 8 0
-1.10442 0.2711079 -0.1154612 24 16 8
-1.079798 0.3180675 0.1033228 49 40 41
-1.108904 0.2395005 0.0730779 139 60 41
-1.12305 -0.143832 0.07998376 0 4 0
-1.171075 0.272287 0.01859886 0 8 0
-1.11909 0.2157864 0.07247264 8 24 16
-1.074503 0.01270538 0.06179059 8 8 0
-1.114221 0.1334498 -0.01222508 32 28 16
-1.122514 0.1315802 -0.02639693 24 16 0
-0.8966617 0.1424183 -0.1448233 49 40 41
-1.116716 0.1942946 -0.08512101 41 28 8
-1.086235 0.3548743 -0.1058244 32 32 16
-1.020157 0.3116622 -0.1441543 8 8 8
-1.206191 -0.0007128819 0.008825652 24 12 8
-1.081976 0.3290972 0.04134921 98 117 131
-1.11772 0.2173545 0.06748866 82 85 57
-1.092836 0.1757483 0.1286149 8 4 8
-1.146391 -0.1300503 0.05667098 57 28 8
-1.136896 0.2863918 -0.09418925 8 4 0
-1.191358 -0.0291482 -0.01363452 16 16 8
-1.187226 -0.05293274 -0.009110673 8 4 0
-1.121584 0.2941395 -0.02186343 24 12 8
-1.173938 -0.01256944 -0.01657464 74 97 115
-1.115863 0.2028298 0.02364035 16 8 0
-1.10775 0.2337798 0.1176488 16 16 8
-1.090175 0.3320154 0.00582217 41 40 32
-1.081093 0.3727892 -0.1060282 24 24 8
-1.127731 -0.002524809 -0.04152012 8 4 0
-1.118382 0.05394299 -0.03840056 16 12 0
-1.099384 0.02556957 -0.09946931 0 0 0
-1.117475 0.1039258 -0.04219611 41 24 8
-1.087614 0.2048089 -0.1296055 8 12 0
-1.120073 0.1371541 -0.08576225 16 16 8
-1.219986 0.1060855 0.02966699 41 16 16
-1.117512 0.2220392 -0.09412461 8 8 0
-0.9918911 0.1080827 -0.1698659 41 28 8
-1.050431 0.4428464 -0.1080536 57 52 41
-1.128116 0.3077412 -0.05009853 8 12 0
-1.147543 0.4457425 -0.07188539 24 12 8
-1.098876 0.2714501 0.09174692 230 210 172
-1.141816 -0.08321922 0.103017 0 4 0
-1.096684 0.2440813 0.143319 57 72 65
-1.073419 0.3297816 0.1816732 57 60 57
-1.153552 0.2401528 0.04490238 41 24 8
-1.145807 0.279688 -0.0148157 0 4 0
-1.113756 0.1423019 0.04623288 41 36 24
-1.101069 0.1783719 0.1328752 32 16 8
-0.9652696 -0.1313238 -0.1905829 32 16 8
-1.188968 0.2618036 -0.02640418 24 12 8
-1.151429 0.2656677 -0.05743497 8 4 0
-1.129943 0.2804335 -0.02583971 32 20 8
-1.078733 0.3809443 -0.1055543 16 16 8
-1.074693 0.3228245 0.1866286 65 60 32
-1.113173 0.1923096 0.1742558 0 8 16
-1.064484 -0.0504307 0.1515313 8 4 0
-1.085932 0.142299 0.1314389 0 4 0
-1.065049 0.393875 0.1332834 230 206 115
-1.093962 0.3685799 0.0546388 164 97 32
-1.131055 0.120237 0.04569194 16 12 8
-1.118205 0.1894315 -0.07416543 8 8 0
-1.161365 0.2443285 -0.06740443 65 40 32
-1.028181 0.2072684 -0.1390682 16 8 8
-1.067981 0.4104846 -0.05292432 8 8 8
-1.121011 0.1911162 0.0492411 90 64 16
-0.9961967 0.3850874 0.1332569 246 226 148
-1.090585 0.3131948 0.05458374 90 109 106
-1.076904 0.3031151 0.1217139 32 32 32
-1.084626 0.3103949 0.113213 98 80 41
-1.115421 0.2166357 0.05386045 131 153 164
-1.147115 0.1797454 0.1124645 8 12 0
-1.072261 0.3350994 0.1604261 189 198 189
-1.086431 0.335688 -0.03905552 0 4 0
-1.084826 0.3343375 -0.1114798 24 20 8
-1.120272 0.2182522 0.04086065 131 145 148
-1.14684 0.4066402 0.02529441 24 24 24
-1.018308 0.3687111 -0.1196656 8 12 0
-1.093698 0.2461958 0.1050765 24 24 24
-1.126614 0.08660603 -0.0537123 24 12 0
-1.156699 0.1122973 0.0815778 65 48 16
-0.9827836 0.1966057 -0.161282 74 56 32
-1.1855 0.2486928 -0.02566413 24 8 8
-1.113445 0.1261934 -0.07354502 41 32 8
-1.217987 0.08917537 0.003645719 8 8 0
-1.117071 -0.0006454036 0.1045107 0 4 0
-1.141229 0.2231425 -0.06568468 16 12 0
-1.136232 -0.1480681 0.009405998 8 12 0
-1.147367 -0.09295139 0.009568138 0 4 0
-1.138808 -0.1888978 0.0031877 41 36 8
-1.189056 -0.01750558 0.03636662 49 36 32
-1.118834 0.1442706 0.008959983 16 20 8
-1.108019 0.3192736 -0.03116151 74 48 41
-1.097399 0.237451 0.1152247 32 32 24
-1.086494 0.3464354 -0.06792721 0 4 0
-1.084595 0.3248946 0.09299058 65 72 82
-1.072177 0.2555128 0.1418993 131 174 222
-1.101102 0.2624576 -0.1186133 24 20 8
-1.085997 0.3671594 -0.1002993 41 40 24
-1.084298 0.3241943 0.1103323 90 85 82
-1.099402 0.2336337 0.1131935 41 36 41
-1.054415 0.3806568 0.1813498 32 32 24
-1.061905 0.4468307 -0.1004452 49 44 41
-1.145288 -0.1667234 0.006133335 8 4 0
-1.317965 0.4539142 0.02597884 16 12 8
-1.098409 0.2938036 0.07040463 139 64 41
-1.14251 0.1533183 0.04718057 57 36 16
-1.195734 -0.0007614661 0.03545173 16 16 0
-1.09702 0.2672024 0.1174649 32 28 32
-1.088574 0.1733824 0.1859638 8 16 8
-1.122837 0.1931677 -0.08492827 32 12 0
-1.153373 -0.1078719 -0.008881625 24 20 16
-0.9491039 0.02169789 -0.1900875 32 16 0
-1.172282 0.1647171 0.1908158 106 121 131
-1.19349 -0.01038999 0.01556482 16 8 0
-1.064742 -0.07850029 0.1485428 16 16 8
-1.157095 0.299311 -0.01119571 0 4 0
-1.079419 0.3734411 -0.09253968 41 28 24
-1.046812 0.3021583 0.1371538 238 194 189
-1.061624 0.3131409 0.1464716 24 16 16
-1.142935 0.2906294 -0.002732679 0 4 0
-1.163832 -0.1197054 0.0892354 0 4 0
-1.176051 0.2585711 -0.05218945 24 28 24
-1.116178 0.2271536 -0.1122092 32 20 8
-1.121376 0.2747281 -0.0930827 24 12 8
-1.180822 0.06202733 0.06806314 32 20 8
-1.200255 0.1024409 0.04109883 41 64 57
-1.111741 -0.1087843 0.002920791 16 20 16
-1.067533 -0.07426814 0.1271534 0 0 0
-1.007147 0.3082243 0.1422883 172 255 255
-1.117297 0.20572 0.02569304 41 28 8
-1.108584 0.3011492 -0.1041017 32 24 16
-1.066073 0.3994668 -0.08929472 16 8 0
-1.158813 0.09523471 0.1021839 16 12 0
-1.123175 0.2088714 0.04285813 123 121 123
-1.088349 0.3380238 0.01211617 32 32 32
-1.070758 0.292526 0.1167843 115 85 57
-1.149272 -0.08739519 0.01177126 49 40 24
-1.143906 -0.06207391 -0.07717333 8 4 0
-1.14729 -0.05247191 -0.09176239 8 4 0
-1.177512 0.05944523 0.06533638 24 12 0
-1.10709 0.1327408 0.07727851 16 12 8
-1.112236 0.1081042 -0.03374577 16 4 0
-1.11485 0.2234496 0.08842407 106 105 41
-1.142413 -0.03920249 -0.09598397 8 8 0
-1.145887 -0.09003782 -0.09183403 8 8 0
-0.9331818 0.01273011 -0.1920148 32 24 16
-1.147012 -0.09499907 -0.06705092 16 8 0
-1.142394 -0.06163419 -0.06449734 24 16 8
-1.169028 -0.0283791 -0.02389796 16 4 0
-1.129319 0.1004306 -0.03391425 16 8 0
-1.146462 -0.03435281 0.08079977 41 20 8
-1.09128 0.345875 0.1197228 8 28 41
-1.111268 0.07577902 0.1514546 8 8 8
-1.076178 0.3500828 0.1133384 164 161 106
-1.113289 0.1281727 -0.05359166 49 32 16
-1.150235 0.160697 0.07868131 16 24 8
-1.138873 -0.1035768 -0.03131077 8 4 0
-1.14899 0.2380625 -0.04517948 82 68 32
-1.122082 0.2140376 -0.06550664 57 20 16
-0.9345407 0.1548426 -0.1603429 57 40 16
-1.147364 -0.04522155 -0.1063562 8 8 0
-1.02005 0.2372792 -0.1432809 24 12 0
-1.138333 -0.2106146 0.0221115 16 12 0
-1.062828 0.3780679 0.1527892 238 218 106
-1.141315 -0.2027438 -0.03117899 24 16 8
-1.140668 -0.2097938 0.01657683 8 4 0
-1.140311 -0.1795799 0.04162123 0 0 0
-1.010831 0.2754203 0.1467612 8 20 49
-1.11359 -0.0247336 0.1057464 0 4 0
-1.081151 0.3116917 0.1964372 24 32 16
-1.115281 0.2201339 0.07318918 24 24 41
-1.155703 -0.122809 0.01533557 16 16 8
-1.067056 0.02918695 0.1557692 8 12 16
-1.117218 0.2146353 0.07491962 24 28 8
-1.071265 0.3285554 0.1912934 24 40 65
-1.11192 0.1316048 0.07302894 16 12 8
-1.149865 0.4609774 0.01435773 16 20 32
-1.066954 -0.1049397 0.1451896 255 234 180
-1.108076 0.363833 -0.07806548 65 72 65
-1.144326 -0.1959105 0.08850218 0 0 0
-1.111766 -0.04240825 0.1139485 24 4 0
-1.091233 0.3297824 0.02757994 57 72 98
-1.126317 0.461534 0.03497814 16 24 24
-1.192135 0.2795791 -0.04764688 57 56 41
-1.14071 0.4099738 0.02459352 16 16 16
-1.114689 0.2025651 0.02952625 90 60 24
-1.091415 0.3196973 0.07236021 74 97 82
-1.083339 0.3237329 0.08255634 82 85 90
-1.125948 0.2196058 -0.08482399 8 8 0
-1.089855 0.3261423 0.02768234 65 72 90
-1.18131 -0.04055516 0.06087489 74 40 16
-1.078452 0.356866 0.1152357 164 178 156
-1.093449 0.3701036 0.04714587 65 20 16
-1.121359 -0.07978901 0.08506469 255 250 238
-1.057108 0.1046221 0.1345319 255 242 230
-1.11144 0.1493908 0.03007018 24 16 8
-1.124655 0.1473981 -0.09944227 16 16 0
-1.106711 0.1362118 -0.08199396 41 32 16
-1.163277 0.1254061 -0.01758663 24 28 16
-1.114394 0.198133 -0.1245458 24 20 8
-1.125958 0.2039031 -0.07368625 24 12 8
-1.088307 0.1998842 -0.1300434 8 8 0
-1.119262 0.181958 0.07235047 16 12 8
-1.148941 0.3027969 -0.008887753 0 4 0
-1.070518 -0.06136247 0.1497397 8 0 0
-1.13083 0.2018334 0.1833301 16 24 24
-1.090994 0.3361503 -0.0149759 24 28 32
-1.089464 0.3739007 -0.100291 41 44 24
-1.067272 0.3382485 0.1889842 41 36 24
-1.038863 0.4271424 0.1313991 106 113 131
-1.095621 0.311328 0.05725156 123 133 123
-1.038991 0.1942099 0.143377 16 20 16
-1.114771 0.4700886 0.03808326 24 32 32
-1.171525 0.09908722 0.0295759 32 16 8
-1.121974 0.1686724 -0.02217557 32 32 24
-1.104852 0.3902786 -0.04678386 8 12 24
-1.127138 0.09571314 -0.05428141 32 28 16
-1.211183 0.2513622 -0.01750591 32 32 16
-1.108157 0.203564 -0.1237496 24 20 8
-1.127806 0.1246651 -0.08146612 8 8 8
-1.122698 0.142708 -0.08868892 16 8 8
-1.120803 0.124039 -0.08990143 16 16 8
-1.163157 -0.08694818 0.1004312 57 97 123
-1.06673 0.4484074 0.05612352 123 64 32
-1.080789 0.3369568 0.06584669 106 129 156
-1.052922 0.3314237 0.1458901 74 36 32
-1.141884 0.2963743 -0.02162214 0 4 0
-1.111773 0.3198406 -0.09361546 8 16 16
-1.114907 0.194661 0.1026892 32 28 16
-1.124121 0.1693547 0.08421894 8 16 24
-1.123865 0.1968429 -0.01429519 24 24 16
-1.127016 0.1941514 -0.02636152 24 24 16
-1.122242 0.2159555 -0.07578107 32 16 0
-1.117047 0.2226031 -0.1184136 24 20 8
-1.119611 0.1738024 0.04734724 74 48 16
-1.089587 0.3823077 -0.1048286 32 28 24
-1.100987 0.1448715 0.1473505 32 16 16
-1.056055 0.3291181 -0.1259945 16 20 8
-1.1252 0.1959599 -0.04040338 8 8 8
-1.086278 0.4024493 0.0489126 90 89 74
-1.149737 0.2669914 -0.04978376 8 12 0
-1.121523 0.13591 -0.04249278 32 24 8
-1.039927 0.4020307 0.1391723 230 230 205
-1.117498 0.1411013 -0.08308208 8 8 0
-1.118487 0.2509838 -0.0921244 32 12 8
-1.162168 0.248045 -0.06773779 74 44 32
-1.087463 -0.1665995 0.1368914 0 4 0
-1.077447 0.3396327 0.07627405 74 93 98
-1.080363 0.3172041 0.1826305 65 85 65
-1.102518 0.1127942 0.1589137 16 8 8
-1.121464 0.2266957 0.04203706 24 16 8
-1.153529 0.1721542 0.06396985 49 48 32
-1.08408 0.392758 -0.1017669 24 24 16
-1.112787 0.07171983 0.1251471 24 8 0
-1.159602 0.2581798 -0.04183467 32 36 24
-1.087658 0.3319092 -0.04362488 0 4 0
-1.122714 0.2609983 -0.06432256 8 4 0
-1.160659 0.2560057 0.05118838 24 12 16
-1.115023 0.1899268 0.1151059 8 36 16
-1.137446 0.2302595 0.01972674 24 12 8
-1.155162 0.1511631 0.06666359 16 16 8
-1.18315 0.2690181 0.05644402 16 20 24
-1.082952 0.3104041 0.1099627 74 56 32
-1.117156 0.2206176 0.07684153 82 48 41
-1.06015 0.4129188 -0.1095788 24 24 16
-1.081563 0.3397706 -0.1110364 24 20 8
-1.185681 0.08995564 0.05432986 24 40 41
-1.080135 0.3506885 0.09778893 131 145 164
-1.147501 0.1827863 0.105169 16 12 8
-1.096756 0.3024299 0.06515383 57 68 65
-1.102941 0.2149075 0.09562165 90 133 172
-1.076403 0.3314537 0.1950985 24 40 57
-1.115887 0.1297655 -0.004726457 24 16 0
-1.13407 -0.004096961 -0.05955457 41 28 16
-1.119103 0.2558788 0.05658425 24 24 32
-1.055089 0.3707873 0.1813267 24 28 24
-1.123253 0.1304584 -0.04959988 24 24 16
-1.113214 0.2062653 -0.09877613 16 36 8
-1.116114 0.1449786 8.81447E-05 82 76 57
-0.9405246 0.1503269 -0.1689027 57 48 24
-1.003584 0.1488059 -0.1646257 57 36 16
-1.093215 0.3302286 -0.08778573 16 12 16
-1.129388 0.2996204 -0.04881467 8 8 0
-1.152221 0.1714181 0.07380445 16 16 16
-1.112037 0.1977192 0.02244534 82 56 41
-1.092946 0.2806246 -0.1045227 57 44 32
-1.106158 -0.07048317 0.1068721 8 4 0
-1.074357 0.03589173 0.1641202 16 4 8
-1.155241 0.4947212 -0.02900715 0 16 24
-1.102844 0.3569164 0.04588638 82 36 16
-1.152817 0.1502462 0.07782573 65 32 8
-1.020744 0.269094 -0.1306594 8 4 0
-1.116146 0.3183331 -0.08334152 24 28 24
-1.189305 -0.006385584 0.02532052 8 12 8
-1.176006 0.320817 -0.03749294 24 8 8
-1.166563 0.2292545 -0.01686082 65 44 16
-1.090682 -0.1582863 0.1183534 8 8 0
-1.122877 0.1919226 0.05257748 90 52 16
-1.199162 0.09081297 0.04042437 8 20 16
-1.095326 0.1999021 0.1330224 16 16 16
-1.076918 0.3531725 0.09697861 123 145 156
-1.083322 0.4067814 0.05755207 98 89 74
-1.124341 0.2065949 -0.1055813 16 16 0
-1.087141 0.3355025 -0.04285368 0 4 0
-1.089114 0.1571613 0.1298881 49 44 16
-1.113165 0.2089943 0.07971521 115 80 32
-1.110517 0.2545333 -0.1147155 32 28 16
-1.122069 0.2659735 -0.07806637 0 0 0
-1.076924 0.4055512 -0.09239674 41 24 24
-1.139547 0.2449606 -0.09541157 24 8 8
-1.125871 0.2644659 0.1933818 16 20 24
-1.212427 0.1086949 0.01363709 16 8 0
-1.091423 0.3206247 0.06569928 90 101 65
-1.190392 0.2865544 0.01065755 41 32 16
-1.124665 0.1857267 -0.005205047 57 60 41
-1.111714 0.1859897 0.004376462 222 218 164
-1.084959 0.331155 -0.03341619 8 12 16
-1.120979 0.2162575 0.04041274 131 129 115
-1.069906 0.3431901 -0.0396903 8 8 8
-1.065481 -0.1886812 0.13765 0 4 0
-1.213841 0.06350623 0.03785196 16 12 8
-1.078639 0.3407713 0.1833665 24 28 49
-1.17462 0.04072231 -0.008912431 32 12 8
-1.106689 0.1253399 0.1430013 0 4 8
-1.109618 0.2051759 0.1023137 24 20 24
-1.097783 0.2895877 0.07060925 156 76 41
-1.111062 0.2336894 0.08328577 131 52 24
-0.8875905 0.2502434 -0.1942856 41 32 24
-1.121499 0.1802828 0.001927733 156 145 106
-1.190921 0.24719 -0.01499692 24 20 8
-1.120092 0.210257 -0.09469744 0 4 0
-1.125258 0.1318775 -0.06850272 32 16 16
-1.119224 0.1989776 0.05062161 98 64 24
-1.139378 0.2964413 0.004842463 0 0 0
-1.212112 0.2519763 0.005888647 57 60 41
-1.115874 0.18269 -0.08089243 41 20 16
-1.033603 0.1853618 -0.1429985 8 8 0
-1.123603 0.191904 -0.0625532 8 8 0
-1.100438 0.2186272 -0.114491 41 36 16
-0.8937026 0.231258 -0.1903826 41 32 24
-1.077393 0.4054902 -0.08858331 24 20 24
-1.177027 0.05754022 0.07021724 24 20 8
-1.201741 0.1213135 0.04876421 16 24 16
-1.004791 0.3783419 -0.1382936 24 20 16
-1.106901 0.1288019 -0.08318795 32 24 16
-1.239885 0.08267233 -0.01191213 0 8 0
-1.202714 0.4169841 -0.01833286 230 174 139
-1.147119 -0.2050297 0.00111893 16 16 0
-1.151415 -0.1952387 -0.01459946 16 16 8
-1.008909 0.2966884 -0.1340504 16 8 8
-1.141482 0.3937014 -0.04674133 65 68 65
-1.083767 0.35281 -0.1022843 8 12 16
-1.159653 0.2234094 -0.009904943 65 52 16
-1.102323 0.04020156 0.1769644 8 8 8
-1.081966 0.3100117 0.2007351 8 12 16
-1.098119 0.2928452 0.07742798 164 133 49
-1.144122 -0.09768684 0.006704808 8 8 0
-1.057207 0.3093206 0.1158614 16 16 8
-1.120873 0.1285024 -0.04412855 24 20 8
-1.11459 0.1304449 -0.01694034 32 24 8
-1.085547 0.4128323 0.04885911 106 101 98
-1.114848 0.129634 0.08440711 32 20 8
-1.123862 0.2166523 -0.07948919 32 12 0
-1.138644 0.4492037 0.02471398 16 16 16
-1.142843 0.2480856 -0.05675264 65 44 24
-1.064479 0.08689277 -0.1595575 32 20 8
-1.115783 0.280224 -0.03943216 16 8 0
-1.081868 0.3208445 -0.1040251 24 20 8
-1.109556 0.211613 0.1248581 16 16 16
-1.040531 0.212011 -0.1423472 8 4 0
-0.9177132 0.1981536 -0.1804494 41 24 8
-1.044877 0.2712459 -0.1289106 24 20 8
-1.091687 0.2774787 -0.120928 41 40 24
-1.063606 0.3655668 0.1497745 255 234 123
-1.15159 -0.1099695 -0.008515527 16 16 8
-1.083917 0.310201 0.1099213 82 76 49
-1.137157 -0.1502531 0.00735095 0 4 0
-1.156185 0.4949141 -0.01708572 8 16 24
-1.153099 -0.105963 -0.007937256 0 4 0
-1.149445 -0.1869873 -0.007159538 8 4 0
-1.056589 0.3206134 -0.1262208 8 12 0
-1.087903 0.3386114 -0.05772763 0 0 0
-1.086348 0.3534698 -0.04764226 41 20 65
-1.164218 0.4710808 -0.04953787 16 8 16
-1.081455 0.3348206 0.07372402 106 121 139
-1.119312 0.179547 0.08528339 24 16 16
-1.072285 0.3358548 0.1955333 0 8 8
-1.121577 0.118247 -0.0330019 8 12 0
-1.068791 0.3650933 0.1417558 246 238 131
-1.097499 0.3792992 0.0404283 82 44 24
-1.19219 0.2639174 -0.04019183 41 12 8
-1.139583 -0.1165469 -0.02070561 24 20 8
-1.140385 -0.1117136 0.004580808 8 8 0
-1.142717 -0.1305809 0.0467972 16 12 8
-1.208024 0.09852278 0.04676583 32 44 49
-1.04946 0.2250172 -0.1300517 8 16 0
-1.088373 0.3333052 -0.000605076 65 80 98
-1.125587 0.3219649 -0.03567665 49 20 16
-1.077762 0.3887306 -0.1044782 41 36 24
-1.092995 0.2779208 0.1078673 32 24 24
-1.089792 0.3249553 0.1159944 131 137 90
-1.013384 0.3671553 -0.1252539 8 12 0
-1.108678 0.3157347 -0.08205634 24 16 16
-0.90619 0.3487177 -0.1820043 41 32 16
-0.8774959 0.2099407 -0.1681782 65 44 16
-1.066061 -0.1066592 0.1397511 0 8 0
-1.165133 0.08596654 0.07768506 8 24 8
-1.062496 0.3991413 0.1453021 32 28 41
-1.110754 0.2322564 0.0837774 189 101 41
-1.198516 -0.0103507 0.02474011 0 0 0
-1.012902 0.3949501 -0.1373343 8 12 8
-1.191532 -0.05087631 -0.01029274 49 36 16
-1.139544 -0.132014 0.0022091 0 0 0
-1.137362 -0.1653302 0.002846303 16 12 0
-1.147182 -0.1101585 0.008746237 8 8 0
-1.115044 0.2302852 0.06750473 115 32 32
-1.140023 -0.1472282 0.003412021 8 8 0
-1.187602 -0.02962054 0.007188116 16 16 16
-1.078713 0.3781974 0.1077659 41 40 32
-1.030607 0.1225799 0.1214615 8 8 8
-1.16276 0.1836035 0.06868569 82 48 16
-1.111676 0.1929313 0.08194946 57 48 41
-1.050349 0.0176629 0.1138948 0 0 0
-1.121669 0.1821468 0.04169241 57 36 16
-1.105335 0.2193612 0.09694096 49 85 131
-1.202489 0.2674431 0.002940265 24 12 8
-1.084723 0.3230758 0.1010657 106 129 139
-1.038816 0.2776162 -0.1299912 24 20 8
-1.157626 0.2904571 -0.006958942 0 0 0
-0.9913334 0.3316264 -0.1336978 16 8 0
-1.098257 0.3166681 -0.06699177 49 20 16
-1.01803 0.3412223 -0.1419595 16 8 8
-1.007239 0.3190981 -0.1344044 24 16 8
-1.002643 0.3875024 -0.1345143 24 20 16
-1.150547 -0.1401423 -0.06429551 24 12 8
-1.053177 0.332101 0.1437896 255 234 180
-1.133369 -0.1506167 -0.03702593 16 8 0
-1.140664 -0.1699149 -0.06758473 16 8 0
-1.124787 0.3806509 0.02934619 32 28 24
-1.156176 -0.0785071 -0.06579929 16 12 0
-1.115593 0.1328745 -0.01536646 24 16 8
-1.118187 0.03754845 -0.03573282 8 4 0
-1.153674 -0.176487 -0.09242916 24 16 8
-1.196216 0.2551279 0.009592543 24 12 8
-1.156674 -0.1120687 -0.0980322 16 12 0
-1.092688 0.3251511 0.02946651 131 117 115
-1.181076 -0.03504668 0.08033872 16 8 0
-1.091642 0.2993682 0.07488011 131 44 32
-1.15002 -0.09270498 -0.09063724 24 20 0
-1.15061 -0.2015354 -0.02383791 16 12 8
-1.068283 0.01843462 0.1417298 8 4 0
-1.083907 0.3312398 -0.04137847 8 12 8
-1.082146 0.3244924 0.1332034 82 105 131
-1.086648 0.343743 0.1340132 131 105 90
-1.203355 0.256814 0.005896858 41 28 16
-1.17659 -0.05490689 0.03152976 115 109 90
-1.147862 0.3238468 -0.03649939 41 16 8
-1.111476 -0.002769822 0.115051 24 24 16
-1.088492 0.01026537 -0.09360256 16 12 0
-0.9688792 -0.1410363 -0.1920812 32 16 8
-1.150864 0.2531913 -0.02108409 49 56 65
-0.9951617 0.07710414 -0.1729319 82 52 8
-1.121151 0.1332605 -0.07183272 24 16 8
-1.086104 0.3225878 0.1841157 74 97 74
-1.134964 -0.03114234 -0.04390645 8 8 0
-1.221779 0.103956 0.006730314 24 8 8
-1.145562 -0.06076921 -0.07406159 32 24 8
-1.208738 0.3269682 0.2031481 0 20 49
-1.102983 0.02838766 -0.102918 24 24 16
-1.08557 0.3178615 0.179588 49 52 41
-1.034981 0.4142324 0.1175211 32 28 24
-1.1449 -0.1724669 -0.07117144 41 24 8
-1.13993 -0.1246502 -0.06566238 41 28 8
-0.5273549 0.07710505 -0.07379606 16 16 8
-1.118523 0.1192967 -0.04680701 8 8 8
-0.8961502 0.2398631 -0.1876575 41 36 32
-0.9632332 0.1586945 -0.1453229 24 16 16
-1.138102 -0.1384233 0.02489903 0 0 0
-1.120526 0.1279965 -0.07042313 24 12 0
-1.108566 0.2070279 -0.1197476 32 28 8
-1.064183 0.3930528 0.1412254 197 202 148
-1.198082 0.09765615 -0.003286602 24 20 8
-1.114719 0.1925263 -0.08083846 82 76 16
-1.084158 0.3344159 0.07710213 57 60 49
-1.16314 0.2673094 0.05809254 8 8 8
-1.109553 -0.02205823 0.1259973 0 0 0
-1.145548 0.2946215 0.007827739 8 12 0
-1.123443 -0.02382091 -0.0455973 32 24 8
-1.147052 -0.1695244 -0.08938265 24 20 8
-1.160917 -0.07050652 -0.09457058 32 20 8
-1.144714 0.2462683 0.04657311 57 28 16
-1.124446 -0.01691142 -0.0415189 16 8 0
-1.119977 0.1341677 -0.03378782 32 24 8
-1.022539 0.2379936 -0.1437207 24 16 0
-1.083225 0.121246 -0.006162612 24 16 8
-1.136182 -0.118157 -0.02436656 32 20 8
-1.075943 0.01303674 0.1090325 16 12 0
-1.111405 0.1248269 0.1296131 0 8 0
-1.143379 -0.09931058 -0.02125796 49 36 24
-1.119503 0.03352755 -0.03407426 16 8 0
-1.092224 0.2654684 -0.1220266 41 40 24
-1.155596 0.2479743 -0.06239145 32 20 8
-1.107079 0.2021621 0.1150391 24 16 16
-1.14057 -0.1012851 0.01293834 0 4 0
-1.119464 0.2052616 0.03886193 98 97 115
-1.081709 0.329657 0.1997644 32 40 57
-1.06587 0.3533317 -0.109675 32 24 16
-1.145696 0.3946271 -0.06486581 41 32 24
-1.105504 0.4735843 0.0253294 16 8 8
-1.119339 0.2108802 0.04641306 139 117 90
-1.15842 -0.02512784 -0.1304183 8 4 0
-1.149183 -0.1313131 -0.07286519 16 8 0
-1.103819 0.2443994 -0.1182478 24 24 0
-1.060902 0.2995158 -0.1271922 16 12 0
-1.085533 0.04472467 0.1745649 0 4 0
-1.098737 0.2664205 -0.1093599 41 32 16
-1.109937 0.2628255 -0.1107017 49 36 24
-1.100157 0.2808166 -0.1138443 49 44 32
-1.101515 0.2718152 -0.08821825 16 4 0
-1.170264 -0.07961715 -0.02676661 24 12 0
-1.067645 0.3121695 -0.1252714 49 48 32
-1.10863 0.3174557 0.03081244 82 64 41
-1.064146 0.4281974 0.1530761 230 202 115
-1.13186 0.2896419 -0.04723981 0 4 0
-1.106047 0.206359 -0.1239587 24 20 8
-1.045459 0.44633 -0.1108323 32 28 24
-1.190038 0.2548851 -0.02635729 57 48 32
-1.115957 0.2338794 -0.1116451 32 24 8
-1.076002 0.3608948 -0.1130173 41 44 24
-1.073493 0.4172718 -0.09190611 32 24 24
-1.101359 0.2733245 -0.04593994 8 8 0
-1.123182 0.1967564 -0.1004639 16 20 8
-1.066692 0.03047084 0.136443 8 0 0
-1.07983 0.4161291 -0.0724586 16 12 8
-1.146584 0.4032278 0.02165519 16 8 8
-1.106683 0.1474502 -0.1030146 0 4 0
-1.062398 0.008704753 -0.07258876 16 8 0
-0.9263749 0.01681887 -0.1955507 57 52 41
-1.206278 0.1129451 -0.0009978396 74 85 49
-1.132872 0.1978711 -0.05913728 8 8 0
-1.072817 0.3616177 -0.1102939 24 24 16
-1.07985 0.4501519 -0.08448787 24 28 24
-0.8928018 0.2599157 -0.1997041 16 8 0
-0.9031155 0.1633481 -0.1921797 8 8 0
-1.115422 0.2080961 0.0661922 16 40 41
-1.122817 0.1276347 -0.008224035 41 28 16
-1.112154 0.2318896 0.07508633 180 145 82
-1.264015 0.2567734 -0.03501843 0 4 8
-1.052371 0.4167324 -0.1039338 49 40 32
-1.084131 0.3372994 -0.05373332 8 12 16
-0.8816937 0.3157848 -0.2005336 32 24 16
-1.158012 0.2391849 0.03636575 222 48 16
-1.135898 -0.05221847 -0.09262704 8 8 0
-1.199592 0.1272842 -0.001961429 16 16 16
-0.9899772 0.3534182 -0.131722 8 8 0
-0.9044945 0.2608168 -0.1928344 57 44 32
-1.052598 0.3569258 0.1252556 255 250 238
-1.098646 0.3327157 -0.01411395 49 60 74
-1.071671 0.4065715 -0.04953315 16 12 8
-1.047465 0.407186 -0.1098967 65 52 41
-1.171681 -0.05199115 0.03444834 90 76 32
-1.184712 0.04354604 0.06235698 98 93 49
-1.025476 0.26713 0.1478921 255 250 222
-1.066193 0.3902656 -0.1093777 24 24 16
-1.113516 0.2398148 -0.1109278 49 36 16
-1.071921 0.3968199 0.138571 238 226 115
-1.096183 0.3176881 0.06578685 90 109 65
-1.070412 0.3680545 -0.1162317 24 16 8
-1.153456 0.3291733 -0.001749292 0 4 8
-0.9103338 0.1947586 -0.1885545 16 12 8
-1.02935 0.2493865 -0.1314476 24 16 0
-1.025076 0.1965047 -0.1517051 24 16 8
-1.121863 0.1988628 -0.1124518 8 4 0
-1.024187 0.1892052 -0.1544078 32 24 16
-1.108701 0.260659 0.03857343 255 101 8
-1.00957 0.1871356 -0.1571376 24 16 8
-1.04537 0.3272012 -0.1235714 41 36 24
-1.084965 0.4266539 0.03000638 16 16 16
-1.00711 0.3358859 -0.1296576 41 40 16
-1.118398 0.1988908 0.09274615 49 40 24
-1.05677 0.4009141 -0.1129218 24 24 16
-1.05843 0.4099532 -0.108811 41 40 32
-1.057194 0.1987751 -0.1301201 8 8 0
-1.125107 0.2934881 -0.05185889 8 8 0
-1.1131 0.1423395 0.04949292 57 44 24
-1.001514 0.2355665 -0.1577172 41 32 16
-1.133987 0.4442707 0.004505063 32 56 74
-1.052729 0.1249456 -0.1550515 57 40 24
-1.038169 0.3055228 -0.1302285 32 32 0
-1.124235 0.1366581 -0.123797 0 4 0
-1.062608 0.08817034 -0.1575841 49 28 16
-1.11635 0.4563314 0.01598871 106 64 65
-1.060428 0.09038417 0.1569868 8 8 0
-1.087075 0.3063454 0.1112633 41 32 24
-1.090414 0.301737 -0.1101331 32 28 16
-1.056761 0.298554 -0.1312491 32 28 8
-1.086333 0.3568158 0.04974522 115 48 8
-0.8526269 0.3322547 0.1550615 8 12 8
-1.081652 0.3535924 0.1314113 213 202 131
-1.100854 0.1016207 -0.0248669 16 12 0
-1.013895 0.3408499 -0.12925 16 20 0
-1.069285 0.376671 -0.1078398 41 36 24
-1.011934 0.1919317 -0.1482049 65 48 24
-1.133529 0.4360716 0.02643537 16 12 8
-1.07522 0.4179495 -0.08774228 32 32 32
-1.187517 0.4091126 -0.02117211 24 24 32
-1.135228 0.4316113 -0.01225221 32 52 65
-1.284735 0.4615331 0.1660253 49 56 32
-1.157243 0.4444598 0.01547401 16 16 16
-1.030168 0.409704 -0.111345 24 24 16
-0.9332761 0.1449977 -0.1257064 0 4 0
-1.101776 0.2448785 0.08121023 230 133 98
-1.136681 -0.217368 -0.0502274 32 20 8
-1.137776 -0.2161666 -0.02060576 24 24 8
-1.136914 -0.2300086 -0.04922767 32 20 8
-1.101006 0.06331555 0.1437255 8 8 8
-1.164268 -0.2673378 -0.02472253 180 129 74
-1.175818 0.4956401 0.002373429 24 24 24
-1.179914 -0.2080322 -0.1022301 41 24 8
-1.090415 -0.2231212 0.129151 8 4 0
-1.227783 -0.2891453 -0.04851998 24 12 0
-1.144637 -0.2351651 0.08623432 16 8 8
-1.172489 -0.1619096 0.03080178 0 4 0
-1.135597 -0.214906 0.1150584 24 12 8
-1.134942 -0.2285464 -0.05871873 32 24 8
-1.131131 -0.06032028 -0.04465475 16 8 0
-0.9844933 -0.1124701 -0.2059568 16 12 0
-1.149233 0.03517516 0.0694571 148 44 8
-1.155921 -0.1230537 0.06610115 255 230 222
-1.037075 0.2132345 0.1476277 74 36 24
-1.159658 -0.1655902 0.1127569 0 4 0
-1.153703 -0.1003466 0.07363272 32 12 8
-1.141879 -0.09051313 -0.07116249 32 24 0
-1.10277 0.160056 0.02143738 41 40 32
-1.073795 -0.2101168 -0.1623367 41 20 8
-0.9763386 -0.1173305 -0.2208639 41 24 0
-1.145925 -0.09641492 0.08757642 24 16 0
-1.142003 -0.1340522 -0.09465269 32 24 8
-1.076767 -0.2263698 0.1231216 8 4 0
-1.071985 -0.2135897 0.1267268 0 4 0
-1.132446 -0.2038089 -0.03777226 32 16 8
-1.16325 -0.1351128 0.1162969 180 214 246
-1.071916 0.06167719 0.1512294 0 4 0
-1.176667 -0.1918326 -0.1078331 16 12 0
-1.103733 -0.1607617 0.06611972 0 4 0
-1.079195 -0.2360436 0.115333 41 12 0
-1.094805 -0.1291158 0.1285211 24 20 16
-1.100388 0.1407667 -0.06436631 16 12 8
-0.8636117 0.2915942 -0.1844817 24 16 8
-1.146518 0.4088488 -0.05699805 24 40 41
-1.12973 -0.1445724 -0.0424424 8 4 0
-1.180947 -0.192511 -0.08278237 41 32 0
-1.180069 -0.2774588 0.07238036 24 24 16
-0.8850965 0.342901 -0.2025781 32 24 8
-0.9818799 -0.1440614 -0.1920741 65 36 8
-1.061595 -0.2110846 -0.1664274 32 16 0
-1.130906 0.2201377 -0.07044846 82 28 8
-1.124398 -0.1545413 -0.03116507 16 8 0
-1.079877 -0.08101637 0.1330148 16 4 0
-0.9415133 0.1474921 -0.1794922 16 16 8
-1.147328 -0.2339527 0.0111587 32 24 16
-1.126355 -0.1367317 -0.03108584 16 8 0
-1.123571 0.1304715 -0.06154736 49 32 16
-1.129012 -0.1299229 -0.04529157 16 12 8
-1.000736 -0.2087823 -0.2059239 16 8 0
-1.078821 0.1141785 0.1326422 0 4 0
-0.965373 0.1557227 -0.1477821 49 36 16
-1.065716 0.2769733 0.1462335 74 60 115
-1.084446 0.01143882 0.1405661 16 4 16
-1.158439 0.03489268 0.06956808 106 32 16
-1.042195 0.2640001 -0.1691976 32 28 16
-1.144608 -0.0836291 -0.07345429 49 32 8
-0.9795427 -0.1674256 -0.2056776 16 12 0
-1.206681 -0.008630193 -0.05603684 49 36 16
-1.154249 -0.1349728 -0.01053154 16 16 8
-1.154616 -0.2004481 -0.1102781 16 16 8
-1.098293 0.009501467 -0.04676352 8 8 0
-1.074357 0.02893031 -0.04839832 32 16 8
-0.9800702 -0.1760903 -0.2197667 24 12 0
-1.099115 0.07722765 0.147335 24 12 0
-1.126725 -0.1763301 0.03580844 8 12 0
-1.136368 -0.2132903 0.0133126 8 12 0
-1.138631 -0.05065526 -0.08358984 24 24 8
-1.126393 -0.03346219 -0.03969043 16 12 0
-0.9850239 0.1487381 -0.109197 16 20 8
-0.9784728 -0.154973 -0.1837921 49 24 0
-1.161936 -0.1582831 -0.1063766 16 12 0
-1.079057 -0.1647135 0.1400729 8 8 0
-1.099857 0.006949111 -0.02775688 8 8 0
-1.09051 0.1164715 -0.1413428 24 24 8
-1.085732 -0.06148703 -0.1462091 32 24 8
-1.105184 0.01765084 -0.1182639 16 12 0
-1.153604 -0.1361696 -0.1000032 41 24 8
-1.19786 0.002070516 -0.01046164 49 44 16
-1.132085 0.04120107 0.07549363 255 255 255
-1.107354 0.0756086 0.1232048 0 4 0
-1.078223 -0.07477751 0.1513645 238 206 148
-1.08798 0.09258034 -0.152208 24 20 8
-1.096347 -0.1351695 -0.1561286 24 16 8
-1.092645 -0.04218536 -0.1481745 16 12 8
-1.093921 0.09557038 -0.1589156 32 28 16
-1.092418 -0.1405416 -0.1520376 41 24 16
-1.12135 -0.1937865 -0.08946543 16 12 8
-1.138449 -0.1717677 0.06573785 8 8 0
-1.095632 -0.01212486 0.1360964 41 40 16
-1.174292 -0.2636661 -0.02793171 16 12 8
-1.13711 -0.216245 0.0004601312 16 12 0
-1.076573 -0.2225497 0.1339863 24 12 0
-1.106047 -0.2513756 0.03547514 0 0 0
-1.117626 -0.002578792 0.1005922 0 4 0
-1.076373 -0.2245066 0.1342075 255 246 230
-1.000202 0.4180495 0.1492477 24 28 24
-1.110046 0.1046467 0.1402833 255 218 189
-1.188686 0.2469586 0.02841236 57 32 24
-1.109812 0.2420401 0.08129988 246 222 115
-1.000512 0.258773 0.1422899 32 36 41
-1.069404 0.2745739 0.1130537 255 242 255
-1.099921 0.2737609 0.08457539 255 246 148
-1.098327 0.2863491 0.07917464 148 72 8
-1.072494 0.34395 0.1504479 139 145 123
-0.9844018 0.3016514 0.1394237 16 246 246
-1.067552 0.3348468 0.2315987 8 8 0
-1.069473 0.3318328 0.2351475 0 0 0
-1.071006 0.3330962 0.205862 0 8 8
-1.064628 0.3656569 0.1526794 82 117 156
-1.02189 0.4669086 0.1413107 49 72 98
-1.014752 0.4679923 0.1303279 106 186 222
-0.9700517 0.4292172 0.1440171 90 36 32
-1.058447 0.4824316 0.04114472 24 24 32
-1.058953 0.4990745 0.05436645 49 28 32
-1.065229 0.4623311 0.04472374 115 117 123
-1.047089 0.4351242 0.1842432 16 16 16
-1.068309 0.3402905 0.1572197 131 121 65
-1.079775 0.3141983 0.2138736 32 48 65
-1.028789 0.5011421 0.1456408 180 170 106
-1.106958 0.2516476 0.08869825 246 202 156
-1.067178 0.2588198 0.1391626 255 255 255
-1.135727 0.2204006 0.02301451 16 12 8
-1.023491 0.4590433 0.1844895 57 44 32
-1.05529 0.3622394 0.1848921 41 32 24
-1.058758 0.3696817 0.1453964 123 60 74
-1.10139 0.187743 0.1347395 98 93 57
-1.13988 0.2500835 0.04228573 41 28 16
-0.9721747 0.4284014 0.1465643 255 218 131
-1.177735 0.1547442 0.2117548 41 28 24
-1.052671 0.3653536 0.1459696 238 218 65
-1.030629 0.4802419 0.1482191 65 56 32
