ply
format ascii 1.0
element vertex 1224
property float x
property float y
property float z
property uchar red
property uchar green
property uchar blue
end_header
-0.4242794 -1.60731 0.8319064 16 24 24
-0.6249423 -1.560959 0.1507479 0 4 0
-0.4919588 -1.59487 0.01394246 8 12 8
-0.6428093 -1.491737 0.4591803 32 36 24
-0.3772682 -1.609936 0.3064958 24 28 24
-0.2407109 -1.686069 0.9725254 49 64 65
-0.2257282 -1.698862 0.5138079 189 214 222
-0.2144485 -1.723039 0.7710474 148 165 164
-0.7260098 -1.056089 0.283184 24 24 16
-0.7255592 -1.279092 0.4974173 41 44 41
-0.68869 -1.139504 0.7292007 74 76 74
-0.6915321 -1.115306 0.5418783 65 64 65
-0.9285864 -1.078247 0.4185857 16 16 8
-0.5474765 -1.654154 0.7570735 8 16 16
-0.7210642 -1.064858 -0.01976363 49 48 49
-0.7613072 -1.012059 0.112912 82 80 74
-0.6959277 -1.1071 0.2547189 41 48 41
-0.6881974 -1.123025 0.7676508 41 40 32
-0.698382 -1.111783 0.630562 57 60 49
-0.7094076 -1.077425 0.32868 32 36 32
-0.3213322 -1.582093 0.4941196 8 12 8
-0.6270268 -1.572492 0.3050966 32 32 24
-0.7296153 -1.042922 -0.005394457 57 56 57
-0.3623301 -1.627791 0.4259289 24 28 24
-0.6967536 -1.114908 0.2176744 65 68 65
-0.6180975 -1.544446 0.4727896 0 4 0
-0.6736209 -1.158792 0.9658734 65 64 65
-0.6968692 -1.149992 -0.01952253 74 76 65
-0.6908064 -1.148954 0.05304222 41 44 41
-0.6803825 -1.154895 0.5703357 74 72 74
-0.322741 -1.599231 0.4760679 16 24 16
-0.7236658 -1.042523 0.1849654 57 52 49
-0.3358418 -1.557557 0.9351563 0 4 0
-0.6957121 -1.107852 0.1657536 82 80 74
-0.7027336 -1.114813 0.9209818 57 60 57
-0.7512994 -1.032788 0.009987654 57 56 57
-0.395997 -1.576733 0.07099592 16 24 16
-0.887696 -1.074421 0.9313973 32 32 24
-0.7154688 -1.050823 0.2463202 49 48 41
-0.7301624 -1.057174 0.5052044 41 40 41
-0.7318518 -1.039676 0.4353841 41 44 41
-0.7303506 -1.070032 -0.02769165 49 44 41
-0.7352871 -1.048384 0.1627121 74 72 65
-0.7044451 -1.096238 0.07950308 65 72 65
-0.7027662 -1.115332 0.005722724 49 48 41
-0.2119427 -1.729017 0.5653755 41 56 57
-0.7238979 -1.051092 0.4630617 74 72 65
-0.6500797 -1.512981 0.1501255 49 52 32
-0.6832553 -1.126601 0.1926919 90 89 82
-0.4631985 -1.423768 0.9995379 49 48 32
-0.677193 -1.1542 0.1998738 49 56 57
-0.688945 -1.153987 0.03551687 32 40 41
-0.6359387 -1.522403 0.5437855 0 0 0
-0.715126 -1.096009 0.1803298 74 72 65
-0.7020189 -1.116051 0.2451761 49 56 57
-0.7628774 -1.01512 0.0273664 49 52 49
-0.7092129 -1.338259 0.1921126 74 68 41
-0.7136456 -1.077319 0.5829152 197 186 172
-0.6124991 -1.573864 0.4379548 24 20 24
-0.7401944 -1.029777 0.04876991 205 198 197
-0.3517977 -1.651489 0.2587178 123 153 148
-0.7061921 -1.108144 0.6173167 205 190 180
-0.7065842 -1.091801 0.6743357 164 153 131
-0.7006183 -1.056459 0.6116211 205 198 189
-0.7601742 -1.008394 0.06123372 222 218 213
-0.7178444 -1.071078 0.6750026 205 198 180
-0.6989897 -1.100317 0.2407098 197 198 189
-0.8199545 -1.027624 0.4757996 189 170 148
-0.4077129 -1.587512 0.6881632 131 149 139
-0.6947466 -1.114407 0.7337715 222 210 205
-0.6837944 -1.137006 0.5590422 189 186 172
-0.7015361 -1.122876 0.5645876 180 161 156
-0.6904719 -1.137614 0.3105826 222 214 213
-0.6868869 -1.151781 0.312359 156 141 131
-0.6939802 -1.109139 0.1853435 189 190 197
-0.7742081 -1.014625 0.3534178 172 161 156
-0.6833487 -1.128014 0.5340285 189 165 148
-0.7494913 -1.028656 0.2705459 189 186 172
-0.7231445 -1.064536 0.6808296 213 198 197
-0.7045388 -1.095349 0.3670008 197 178 156
-0.7056901 -1.096542 0.8595924 172 161 148
-0.4600847 -1.611632 0.9986651 65 89 74
-0.6971752 -1.118461 0.8009839 213 198 180
-0.7369833 -1.067274 0.1411872 197 190 189
-0.6989154 -1.101282 0.2630215 205 202 189
-0.8180591 -1.01407 0.006927694 148 133 123
-0.7003519 -1.105208 0.3247024 213 202 197
-0.7035396 -1.106363 -0.04879673 197 194 189
-0.8428608 -1.020864 -0.01016343 57 48 41
-0.7843977 -1.014193 0.387101 156 137 123
-0.7409705 -1.043423 0.1084963 139 125 115
-0.6839444 -1.167521 0.7993768 156 141 131
-0.7294661 -1.067838 -0.02488664 197 190 180
-0.731086 -1.050777 0.7149392 123 109 106
-0.8721053 -1.061163 0.660542 106 93 82
-0.6959175 -1.114673 0.1072606 172 165 148
0.851828 0.4529352 2.738544 82 68 57
-0.6375365 1.08109 3.070443 90 109 131
-1.029585 0.6246382 3.060896 65 93 115
-0.8873209 1.19028 3.07842 90 105 131
-0.5301974 1.342775 3.07909 180 145 115
-1.061022 0.9612793 3.073913 82 105 131
-0.02828604 1.116106 3.060554 90 117 131
-0.9626939 0.9131868 3.070894 156 125 106
-1.067281 0.2082122 3.051855 65 44 8
-1.193203 1.128615 3.082891 180 109 106
-1.50017 1.306763 3.092777 139 105 57
-1.305956 0.8988954 3.078789 148 113 74
-1.467445 -0.03317166 2.725575 106 89 82
-1.255803 0.5916666 3.063565 90 60 32
-0.943135 0.5284144 3.057231 65 85 98
-0.6534765 0.9435921 3.066075 90 101 123
-1.098544 0.8468623 3.07001 74 101 115
-0.9703149 0.09139861 3.047726 139 113 65
0.1745798 1.124813 3.068042 82 105 123
0.3109379 0.3268985 2.983153 131 64 65
-1.174242 1.171339 3.082304 82 109 131
-0.9056593 0.6067888 3.05847 65 85 98
-0.9244369 -0.1443337 3.042778 115 93 32
0.6823547 0.7688271 3.049101 123 101 82
-1.022451 0.5061914 3.056754 74 93 115
-0.6800858 -1.055816 1.189997 197 194 197
-0.639495 -1.162462 1.110062 189 186 189
-0.6524009 -1.119927 0.979785 156 149 156
-0.6461668 -1.141225 1.139781 156 145 156
-0.6622764 -1.099477 1.236753 189 186 189
-0.6638448 -1.083444 0.9916868 172 153 156
-0.6580788 -1.11031 1.189846 139 121 123
-0.6585036 -1.073081 1.125419 180 170 172
-0.6522139 -1.111556 1.145007 189 190 180
-0.6391504 -1.143314 1.011099 197 198 197
-0.5372362 -0.5212368 3.02773 90 109 115
0.6436842 -0.4002433 3.016134 172 133 123
-0.6443441 -0.3679141 3.032189 82 101 106
-1.076227 0.9525822 3.074172 74 113 123
-1.017323 0.209866 3.051172 123 85 57
-0.4619579 1.164073 3.072065 98 129 148
-0.4550482 1.402945 3.08025 131 145 131
-0.6999734 -1.026672 1.172377 180 178 172
-0.6679215 -1.077428 1.001956 172 161 172
-0.6506888 -1.122026 1.051491 172 161 164
-0.4061111 -0.8479776 3.021194 82 105 115
0.8371204 -0.1147436 3.023977 74 89 106
-0.7012354 -0.5944092 3.03123 148 137 90
0.2331243 -0.6793208 3.013873 106 80 65
-0.5009833 -0.05830452 2.994927 90 44 41
-0.7325774 -0.4365121 3.032812 106 72 41
0.9236331 -0.1103388 3.024781 115 97 41
-0.7053648 0.9981052 3.068438 74 97 115
-1.34702 0.4405821 2.719709 74 56 57
0.09805823 -0.6141913 3.020071 57 76 82
-1.132348 1.114078 3.080383 189 153 139
-0.2465843 1.176594 3.067271 90 109 131
0.7738989 0.3591424 3.032875 74 60 41
-0.6292129 -0.3629483 3.031318 65 85 90
0.02252481 -0.7105218 3.022666 106 89 98
-1.769061 -0.01334843 3.127659 82 72 49
-0.1387874 1.384456 3.078794 189 129 115
-0.6258557 -1.184206 0.9509937 189 182 189
0.59134 -0.3816127 3.017554 172 141 131
-0.6308995 -1.155687 1.083287 189 174 180
-0.6784361 -1.060977 1.157045 172 161 172
0.03942101 -0.8748657 3.014566 90 105 123
-0.04274867 -0.9877204 3.014081 82 72 82
-0.06392656 1.118664 3.062336 90 105 115
-0.9707287 1.277148 3.081492 180 105 98
-0.7942399 0.9691661 3.06423 156 133 123
-0.4802707 -1.275435 0.8518186 156 137 123
-0.4153962 -1.375445 3.012699 49 36 16
-0.06951015 -0.9716098 3.013834 180 145 131
-1.458468 -0.02743066 2.721846 98 85 82
0.6009005 0.9172668 3.057539 106 80 65
1.237926 -0.9497084 3.005419 41 28 24
0.04861239 1.555468 3.093813 74 101 123
-0.8349927 1.194164 3.080351 65 60 65
0.1475506 1.185586 3.066313 106 125 139
-1.101568 0.663875 3.062917 74 97 115
-0.5407484 -0.01700522 2.994497 139 76 74
-0.2852976 -1.53059 2.291679 98 105 98
-0.5957379 -1.041716 3.019445 106 93 32
-0.3553056 -0.9627525 2.984915 74 97 115
0.9388958 0.3771042 2.469088 98 97 98
-1.342174 -0.2483475 2.715435 115 105 90
0.7555633 -1.417755 2.396418 148 85 82
-0.1877281 -0.7128545 3.020748 172 125 106
0.5618355 -0.4828101 3.016371 98 76 82
-0.4256502 -0.9385062 3.018283 65 93 106
-0.4595498 -1.377573 3.018108 90 72 24
-0.1213927 -0.5426534 3.022974 98 109 123
-0.3262989 -0.5999556 3.024016 82 97 115
0.5917243 0.9191699 3.064767 74 48 41
0.6772112 0.9344025 2.78125 49 36 32
-1.354353 0.1065846 2.767856 123 105 90
-0.7398796 0.189245 2.9988 123 89 74
-0.5955148 0.4006789 2.817033 41 24 24
-0.2265192 0.727865 2.974368 74 52 49
0.7371401 1.365147 2.507826 106 68 74
-1.475577 0.3535872 2.768178 106 93 82
0.3330088 0.9445556 3.05126 90 109 115
0.7390029 1.337543 2.514528 164 93 98
0.6934865 1.434478 2.523024 164 125 115
0.2788787 0.9028367 3.047754 65 36 32
0.374986 1.074526 3.126437 82 97 115
-1.416028 0.01135593 2.774835 106 93 82
-1.427274 0.2631291 2.802052 131 109 98
-0.5370679 0.5272202 3.00232 98 40 41
0.8314089 1.386744 2.528256 148 97 90
0.7600645 1.329911 2.496344 139 85 90
-1.540441 0.3169407 2.762343 115 101 90
0.6089227 1.12248 2.885773 32 28 24
0.3955209 1.639837 2.724176 41 32 32
0.4264822 1.657933 2.512682 139 85 82
0.5086917 1.774042 2.517005 139 64 65
-1.590062 0.9685342 2.374673 106 89 82
0.4314077 1.908406 2.505961 172 125 106
0.1563261 2.913155 0.2701015 148 170 180
-0.6093262 3.944355 0.213654 41 12 16
0.4420149 4.238633 0.3343616 65 20 24
-2.583892 3.100692 0.6207939 172 165 156
0.5445147 2.569942 0.7451556 123 133 123
-1.906707 3.310977 2.837415 90 48 49
-2.344908 3.341357 0.5763841 115 125 115
0.4079059 2.735293 0.471793 82 113 139
0.3580191 2.219759 2.481678 90 72 57
0.3952273 2.75919 0.5711968 82 129 139
-2.485745 3.232822 3.06411 65 28 32
0.6186794 2.210326 2.49441 24 24 24
0.6031305 1.85814 2.481613 139 76 57
-2.291438 2.633393 0.4945035 41 48 41
0.4705453 2.674752 0.9343154 255 255 255
-0.3871393 2.901191 3.092503 49 56 49
-2.348007 2.853154 0.5054084 49 44 49
-2.255156 2.666451 1.173 230 222 222
-2.587428 3.510375 1.160674 148 133 139
-2.278089 2.491124 3.094209 156 161 164
-1.494595 0.9544994 2.640511 8 12 8
-1.44242 1.249968 3.063096 16 16 8
0.4785839 2.627301 0.08379004 172 206 222
-2.394233 2.722611 0.03944039 131 129 98
-2.592439 3.306501 -0.08096668 24 24 24
-2.698081 3.776358 0.03222392 32 36 32
-2.57397 3.295336 1.126727 180 178 172
-2.507689 3.281272 0.09947718 189 161 90
-2.472857 3.117246 1.30502 230 222 222
0.4358274 2.601443 0.5326899 115 161 172
0.4252125 2.578453 0.5169737 148 202 197
0.4327939 2.794169 1.996459 213 242 238
-2.347611 3.179921 3.678482 197 198 197
-2.226432 2.592661 2.657611 238 234 230
-1.772501 1.259696 0.6708102 106 85 57
0.4087658 2.84264 2.721107 16 16 16
-2.279418 2.66564 0.798053 205 198 197
0.6224849 2.129596 2.536575 139 141 131
-1.651561 0.8901534 2.293813 65 56 41
0.2255265 4.322196 0.3657326 246 64 57
0.3984973 2.696689 0.7435248 164 210 213
-1.674244 0.9798976 0.8492755 82 80 74
-2.361271 2.703058 2.15092 238 72 90
-1.751257 1.204286 0.3893454 82 68 41
0.5700958 1.760474 0.9024068 32 28 24
0.4859313 2.645244 0.9553238 205 234 230
0.4323208 2.883754 2.178384 189 218 205
-2.245094 2.752984 2.697101 213 52 57
0.3988458 2.009878 1.202657 74 72 65
0.4549443 2.71749 0.3350169 90 133 148
0.3816367 2.713247 1.356527 164 202 205
0.4283479 2.730603 1.935184 180 214 222
-1.650469 0.9208782 0.544059 57 60 65
0.4653013 2.645725 1.848969 139 178 172
-0.9365198 1.070579 3.052636 24 20 16
-2.286897 2.644409 2.024511 238 238 238
-2.187988 2.469673 2.151782 213 210 205
-1.530736 1.073569 2.779119 0 4 0
0.3628598 2.905957 1.060033 139 174 180
0.593213 1.641698 1.059482 8 12 8
-2.775882 3.838402 -0.1100328 205 32 32
-2.689959 3.689441 1.16911 205 202 197
-2.735331 3.717065 -0.2870542 205 40 49
-0.1453546 4.714179 0.08436376 106 109 106
-2.306212 2.57846 2.565408 213 214 222
0.5129145 2.568711 0.6116061 131 178 189
-1.036685 1.624292 3.086083 90 68 8
-2.953914 4.236887 2.050861 131 133 123
1.110676 2.604779 1.57241 255 222 222
-2.68519 3.645454 0.01390941 24 24 24
-1.503687 0.9663994 2.891074 32 36 32
-2.626632 3.336149 4.084923 164 157 156
0.5073747 2.612368 0.9128952 24 48 57
0.4527868 2.575617 0.0687231 172 210 213
-0.3315918 5.185315 -0.4142819 106 40 65
-0.4743453 4.350707 -0.4688113 123 117 123
1.3363 1.964191 3.075992 255 255 255
0.7320847 2.513362 2.89496 8 8 8
0.7912294 1.939712 2.851022 74 56 57
0.6694498 2.098636 2.503626 148 145 139
0.8515273 2.155466 2.901918 16 12 8
1.795429 0.2600602 3.931678 246 250 246
0.8853317 1.792839 2.753469 115 93 98
1.290309 3.466416 2.608413 172 202 238
-0.2922719 2.718341 2.276441 74 85 82
1.227682 1.827576 3.337735 246 246 246
0.4562981 2.729207 2.810424 98 89 90
1.827212 0.203608 4.212557 90 93 156
1.003892 1.056083 2.462036 16 12 8
0.6197751 1.603071 0.8990309 0 4 0
0.5381905 1.748064 0.9535401 255 242 156
-1.372808 0.06506565 2.682968 49 44 32
1.313773 1.888071 3.183105 74 72 98
1.544274 0.9163111 4.019588 255 255 255
1.664724 0.7711477 3.634048 238 238 238
1.034455 1.148357 2.569603 16 20 16
0.7769015 1.757269 2.569567 90 105 115
1.840266 0.07115684 3.822359 255 255 255
0.9695056 1.318455 2.514122 24 20 16
-0.2371774 0.2909299 2.799667 8 8 8
0.7527715 1.2088 1.012032 24 12 16
1.394067 1.153624 3.433424 148 145 115
1.132596 1.007719 2.546799 16 16 16
1.847395 0.1215965 3.672185 148 149 156
1.669065 0.5592543 3.693715 115 89 90
0.9782177 0.7104358 1.122013 246 234 180
1.148395 1.034217 2.759232 16 12 16
1.855371 0.2356963 3.765727 255 250 246
1.312704 1.126433 3.042711 24 24 16
1.904456 0.2853655 3.04553 41 36 49
1.699038 0.5451069 3.349544 255 255 197
1.406507 0.1857261 2.478076 139 137 131
1.860008 0.0420461 3.467525 106 89 82
1.606771 1.005438 3.047493 164 149 156
1.390186 0.589304 3.037815 32 36 24
-0.1802481 -2.072325 1.895453 74 85 98
1.967933 -0.7577288 4.341901 98 80 82
1.13815 0.8893415 2.562599 8 12 16
1.297252 0.4531323 2.510378 115 133 131
1.194037 0.8569307 2.901446 8 12 8
-0.5181561 -1.121882 3.019584 24 20 16
-0.2623824 -1.664697 2.164391 74 80 90
-0.233535 -1.624101 2.854852 16 16 16
1.376061 0.4363717 2.780679 98 93 90
1.957748 0.15924 3.175526 82 76 98
1.856171 0.2031164 3.32912 255 250 205
1.766076 0.6169215 3.192457 106 85 115
1.686614 0.776131 3.171129 246 242 246
2.032176 -0.03981215 3.242797 230 234 238
1.817279 0.3835306 3.597296 172 182 139
-0.2194171 0.05553778 2.957201 189 129 106
0.7419022 1.377343 1.049446 131 161 82
0.8630946 1.07707 0.8354972 205 165 123
0.7959638 1.360571 2.468694 16 16 8
0.8738391 1.651468 2.955436 8 12 8
0.9840947 0.7598526 1.075675 123 165 65
1.317935 1.015195 3.045981 32 32 32
0.9117109 1.982694 3.073025 41 40 32
-3.316643 -0.7984387 3.118387 0 0 0
-3.294708 -0.9234822 3.073356 8 8 8
-1.555897 1.072539 1.944529 32 40 32
1.095079 1.03156 2.449155 41 40 32
1.635037 0.8801041 3.526733 90 76 65
-0.9934416 0.1300785 3.051417 24 20 16
-1.218554 0.03236181 2.697205 49 44 41
1.924884 -0.6784773 4.431839 230 226 222
1.201068 0.6560441 2.521142 106 129 139
-1.806468 1.324932 0.604569 139 117 57
-2.455301 2.936936 2.328803 205 202 197
1.081282 2.32467 3.233486 74 85 82
-2.780152 3.396644 5.085855 148 113 82
1.18153 0.8917761 2.76072 139 121 123
0.6852283 2.131072 2.611887 16 20 16
1.335374 1.714148 3.071974 197 202 197
1.759924 0.1821287 4.255719 255 255 255
1.408932 1.47105 3.10073 123 121 131
1.320377 0.4029061 2.464104 32 28 24
1.399368 0.432697 3.0422 16 16 8
-0.1945984 -1.928156 1.741493 65 80 90
-3.349532 -0.895033 3.020841 8 8 8
1.558302 0.6612838 3.074111 49 56 41
-0.4306248 -1.630686 2.717535 8 8 8
-2.590774 3.44605 4.53772 255 255 238
0.3997414 2.796418 2.770174 98 125 131
0.476409 2.604589 2.986152 57 56 57
1.360705 1.520848 3.565989 74 64 41
1.570796 1.015805 3.828161 106 80 90
-0.8306239 -0.6421033 2.940118 0 4 0
0.5551786 1.738752 1.036699 8 8 0
1.776223 0.1281814 3.029382 41 40 32
0.6602579 2.251392 2.819148 24 24 24
-0.3753961 -1.602108 0.09855238 106 129 139
1.86523 -0.4967963 4.189462 222 218 205
1.673865 0.3897014 3.017561 41 44 32
-0.6411318 -1.513856 0.1971428 172 153 115
-0.2591562 -1.670822 0.4840563 82 109 115
1.196569 0.7164974 2.474348 49 48 49
1.639 0.8938579 3.202948 123 129 148
-0.2284364 -2.580464 2.373875 156 97 106
-2.529819 3.205334 2.204081 246 56 65
-1.569702 0.9535504 1.120208 156 149 148
-1.276538 0.06776562 2.694689 16 16 16
1.145893 0.03595456 2.458381 82 56 49
1.515442 0.9793882 4.146493 189 178 172
1.455083 2.260946 2.790262 82 89 74
0.9709918 2.188649 3.654928 115 93 82
1.835708 0.1875334 3.37665 255 255 246
0.8699998 1.665035 2.630104 32 40 41
1.361271 1.668893 3.147006 246 255 255
1.468241 0.1081827 2.487649 131 145 164
-0.6885058 -1.67013 0.5956227 16 16 16
1.847013 0.2159427 4.058139 74 64 74
-0.8786943 -0.7330284 2.765888 8 12 8
1.500604 0.1090627 2.816736 98 93 98
-0.1239396 0.3087742 2.440735 205 198 164
1.383691 0.8445389 3.038209 32 32 24
1.904617 -0.4760109 4.077054 222 226 238
-0.3256885 -1.629907 1.930985 57 76 82
-0.7896214 -0.5695284 2.988404 8 8 8
0.6078492 1.597228 1.007613 0 8 8
-0.3980686 -1.507932 0.02757818 24 32 32
0.4989419 2.676065 0.08977536 82 133 131
0.5622938 2.264512 2.479829 32 32 24
1.261406 1.326277 4.19454 131 170 197
1.232647 1.95025 3.152035 156 161 172
1.367425 0.30928 2.521841 65 76 98
-0.1161289 0.3187664 2.894034 8 8 8
-1.430815 1.5321 3.085923 98 72 32
0.8408347 0.9746841 0.8886256 180 165 115
1.436851 0.8918735 3.040437 65 68 49
1.560619 0.01769922 2.982734 32 36 32
0.6603243 1.53467 1.153252 98 105 57
1.542749 0.01895554 2.721588 49 56 65
-0.8386323 -1.471399 0.1479447 90 89 57
-2.262649 2.750867 -0.0610905 24 28 24
-2.368494 3.035477 0.124596 49 48 41
-6.693753 -2.439842 0.3030505 106 97 90
1.367239 2.050115 2.869946 32 36 24
1.778608 0.2806621 3.380049 148 93 90
0.6077301 1.469662 1.045961 197 153 123
1.20399 0.6737952 2.481324 41 36 32
1.141671 0.9752996 2.544906 16 16 16
-0.7095503 -1.076755 0.7929719 123 129 131
0.7555087 1.269044 0.8854365 16 12 16
0.8843901 1.144692 0.7216551 8 12 8
-1.419152 0.7723244 2.803911 8 8 8
0.8038027 2.019662 4.511687 238 222 180
-0.06477579 0.4080907 2.879668 24 32 24
1.592267 0.9553421 3.715244 139 113 74
0.9307939 1.420176 2.483913 41 36 32
0.8734805 1.603248 2.622071 82 64 57
1.690458 -0.2684733 2.643294 41 44 41
-0.2903475 -2.52016 2.290324 115 60 65
-1.413791 -1.386178 2.255357 0 4 0
1.953068 -0.03494665 3.011567 57 60 41
1.786291 0.5606886 3.053237 90 97 123
1.439822 0.2697091 2.860226 156 145 98
1.589352 0.5614259 4.211992 90 89 115
-0.7345074 -1.166402 2.49018 49 44 41
-0.3453981 -2.283624 1.929479 180 190 205
-0.7571491 -0.8179477 2.780967 16 12 8
-0.1359879 -0.8781345 3.027194 90 76 65
-1.589715 0.9980947 0.8911347 65 64 65
1.383809 1.530275 3.794745 74 60 41
-0.5384778 -1.800218 1.863581 49 60 57
-1.464817 0.9962816 1.953967 41 40 32
0.3724933 2.898093 0.08882121 164 218 222
0.4225211 2.72984 -0.04138655 90 117 139
1.185241 1.843312 3.649769 139 97 90
0.6847165 2.07156 2.492249 106 109 90
-1.129704 -0.4146107 2.709809 65 52 41
-0.03778673 -1.62406 2.410872 57 40 32
1.817901 0.1124095 3.001376 41 52 32
1.339047 1.50562 3.477186 57 48 16
0.02262074 -1.442152 3.019683 24 20 16
1.161682 0.6724327 2.437353 49 40 32
-0.819233 -0.6727167 2.866512 16 16 16
-2.869335 -0.9931051 3.051308 8 12 8
1.437312 -0.5424014 2.432417 57 36 32
-0.7132736 -1.541132 0.5703716 82 85 57
-0.7504692 -1.092595 1.907677 74 72 65
0.08739177 -1.480104 2.952875 8 12 16
1.838353 0.3846857 3.602157 90 85 57
0.8276449 1.9085 3.071897 32 32 24
-1.780648 1.268989 0.2302142 172 145 74
-3.073937 4.585958 1.114181 189 186 180
-2.437677 3.032807 4.434923 172 113 123
1.158738 0.0896212 2.442034 24 24 24
-2.439142 3.090759 3.255767 238 230 230
-0.9107577 0.7324306 3.052786 57 76 82
-3.065612 -0.0438336 3.061608 24 24 24
-2.645097 3.129994 5.05241 98 85 65
1.228239 3.116093 2.590753 32 48 16
1.168662 2.129526 3.606818 255 250 246
1.183693 1.81024 3.453811 230 206 213
0.4059773 2.424683 1.612938 222 255 238
1.14285 2.08409 3.543116 156 145 139
1.614496 0.4534363 4.278236 255 255 255
0.6928222 1.867624 2.476686 16 20 16
1.169497 1.856311 3.537356 123 93 57
1.226688 0.7431958 2.58847 16 16 16
1.803588 -0.09565695 4.466233 255 255 238
1.538302 -0.1650341 2.559884 24 36 32
2.042123 -0.7647275 3.412488 172 174 180
1.203052 0.7823021 2.550813 16 16 16
1.827776 -0.7152336 3.009099 16 16 16
-0.1907627 -2.490253 0.4801478 180 190 189
1.600754 1.149149 3.091012 255 255 255
2.082834 -0.4901024 3.149694 230 230 238
1.240743 0.684866 2.597708 57 64 74
-0.1874528 -2.571324 0.4872556 156 157 164
1.982548 -0.8005832 4.267457 255 250 255
2.139909 -0.5919374 3.549837 222 210 180
1.83869 0.001732392 3.550594 82 68 90
0.565843 2.482027 2.787638 24 28 24
1.326935 1.327583 4.000989 98 109 106
1.594159 0.4132217 4.473219 255 255 222
0.8102986 1.188369 1.043619 255 255 246
1.302378 0.5623012 3.040465 16 16 16
1.256134 0.7673202 3.01972 8 12 8
2.062213 -0.9691178 4.455091 82 64 65
-1.057854 -0.04041304 3.001009 8 12 8
1.149923 1.458566 3.014615 32 36 32
0.4116834 1.825748 2.471517 74 60 49
-1.612831 0.9803746 0.5498827 90 97 90
-0.8937415 -0.8214735 2.00925 0 4 0
0.7802762 1.236645 0.8366849 24 16 8
-1.692717 1.44903 2.930098 49 48 49
-0.1967092 -1.834785 0.09553305 139 182 189
1.152532 2.328476 3.117848 189 182 172
2.027417 -0.6520319 3.854898 238 226 189
1.344198 0.5407955 2.626011 123 117 106
-0.2492192 -1.667533 0.5782506 41 48 49
-0.5218579 -1.705226 2.659959 32 32 32
-2.399787 2.888744 2.673403 238 230 230
-2.350506 2.775407 0.2484715 189 170 123
-13.61951 -7.234554 2.372202 8 8 8
-2.392937 3.044917 0.2397988 65 56 49
-1.214883 0.291677 2.79741 8 12 8
-0.04034444 -1.946259 1.92104 32 44 41
0.6811754 1.9704 2.513747 123 117 115
0.1242416 -1.536515 2.428505 57 40 41
1.635329 0.8243963 3.514827 197 206 205
-0.05882196 0.4688413 2.878903 8 12 8
1.223098 2.063766 3.232201 238 255 238
-0.7591006 -1.149956 0.5333201 82 80 90
1.258475 0.03869468 0.9609303 57 80 90
2.040021 -0.6483732 3.867172 65 68 74
1.016745 1.382368 3.064453 57 56 41
1.848987 -0.6898311 2.776998 106 113 115
-1.144433 -0.2307354 2.683729 41 36 24
1.381939 0.5365191 2.598942 82 109 106
1.804481 0.1835106 4.253764 115 129 148
0.9252593 0.8159215 0.8009006 24 16 0
1.467437 1.382919 3.106346 49 60 57
1.405745 1.625153 3.807151 123 97 41
0.459857 2.749136 1.477795 180 210 205
1.241349 1.478619 3.041827 49 52 32
-0.3760077 -1.584403 0.637512 41 44 49
1.662001 0.9674034 3.722268 255 255 255
-0.724078 -1.43027 0.1471118 213 198 131
3.28476 3.062904 0.9561744 16 16 16
0.6761324 2.16621 2.660698 82 85 74
0.9183893 2.066034 3.058983 41 48 32
1.98221 0.1307936 3.701458 106 89 41
0.8077294 1.8249 2.501941 106 125 139
1.50324 1.014281 3.516779 98 89 74
1.341982 1.572681 3.717536 106 72 41
1.518076 -0.8614219 2.035959 32 32 32
1.747613 0.4509812 3.5806 164 182 189
-1.341148 0.6023744 2.926488 24 24 16
1.369718 0.2740931 2.447881 57 60 49
1.066072 0.4754393 0.8738533 57 28 32
1.186586 0.8677247 2.932407 65 48 49
0.87058 1.065612 0.7281528 8 12 8
-0.4890532 -1.368963 2.92725 16 20 16
1.54001 -0.1937535 2.460857 41 36 41
-2.341166 2.707036 2.057717 197 48 57
-3.135762 4.757308 1.237729 222 222 230
0.7527122 1.277223 1.135755 8 16 0
-1.807264 1.302359 0.5251411 148 137 82
-2.873308 3.951341 0.02415289 255 255 255
-2.864861 3.924297 -0.00516136 213 48 41
-2.549957 3.294257 1.81207 180 36 41
-0.7104264 -1.283779 0.3824314 156 137 98
-2.58703 3.484989 1.022297 205 198 197
-1.889444 1.270891 0.2753399 172 161 106
-1.509995 1.701138 2.512886 139 85 65
0.8744535 0.980178 0.7684917 139 113 74
-0.218464 -2.078893 -0.01313042 131 141 156
1.190305 -0.07979731 2.438547 32 28 24
1.008951 1.34818 2.971534 57 56 65
1.560277 0.6823652 4.095564 246 250 238
1.999207 -1.069396 2.391948 123 157 172
1.850217 0.4649941 3.116238 246 242 238
1.271836 0.7387204 2.560383 16 24 16
1.928553 -0.7347813 4.910188 255 250 246
1.869325 -0.7322222 4.606495 238 238 238
1.230974 0.8526356 2.565633 24 24 24
1.925584 0.09866671 3.850458 74 52 74
1.859312 -0.2778167 4.050716 238 242 255
0.1013875 0.4836655 2.62118 8 8 8
0.6001024 -4.599419 4.338654 255 250 246
1.929351 -1.136943 2.575947 24 36 41
1.887717 -0.8093998 0.8168347 205 246 246
1.9883 -1.121515 2.653679 24 32 41
2.177684 -0.6736488 3.077813 255 255 255
1.961045 -0.9122745 0.9568208 189 222 222
1.917771 -0.8095467 0.677497 74 101 115
2.065758 -0.4658301 3.167023 131 141 164
2.071864 -0.5183102 3.222198 230 234 230
2.299026 -1.052293 3.351558 180 186 180
1.828195 -0.7933401 1.375169 172 198 205
1.684632 -0.7238424 0.7587687 156 174 164
2.237691 -0.780231 3.082731 172 161 148
2.032367 -0.9965038 4.40177 156 153 156
2.156036 -1.15471 4.088078 238 238 246
1.844285 -0.8698211 0.9886368 156 190 189
1.105442 0.4911949 0.9477791 213 165 123
1.800361 -0.6043058 4.634148 49 60 49
2.153323 -0.9855281 4.85217 139 121 90
0.6212482 -4.779406 4.560658 238 222 238
1.608541 0.7313699 3.844449 255 250 222
0.5605202 -4.5725 4.435981 205 234 255
1.963352 -0.08244278 3.541046 230 234 246
1.305377 -0.08567472 0.6879985 90 72 82
1.501992 1.272174 3.150013 197 190 197
1.666415 -0.837378 5.473045 238 238 238
1.34285 0.943899 4.602854 41 52 24
1.550534 0.5478392 5.045728 180 153 139
1.130222 1.579591 4.630742 148 141 98
1.448086 1.225112 3.577827 238 234 213
1.506339 -0.749963 0.802345 82 89 90
1.710113 -0.1287136 3.047528 32 44 32
0.7911571 1.726163 2.48491 24 24 16
2.33348 -1.145168 3.825992 115 109 115
1.959055 -0.9820161 1.997826 205 234 230
-0.312688 -1.70325 2.860855 8 8 8
2.001272 -0.6607946 3.989663 189 190 148
1.912756 -0.5786903 3.014757 65 76 57
-0.7199892 -1.100363 0.693542 123 121 123
-2.451223 3.040319 1.339955 246 242 238
-1.109503 1.340214 3.061066 57 85 90
2.482214 -1.351995 3.241293 255 255 255
-0.1584426 -1.731703 2.428522 57 44 41
1.599758 0.4035484 4.116699 41 36 49
2.031111 -1.074074 2.334267 172 210 222
2.093807 -1.052377 3.018309 41 48 41
2.186997 -1.2612 4.14364 180 194 197
-1.156993 0.1224332 2.920387 24 24 24
1.850492 -0.6759179 0.987574 156 210 213
1.623273 -0.5852708 5.372759 197 210 230
0.4881906 2.64773 2.811941 82 76 74
1.026305 2.012714 4.125846 115 117 148
1.1824 1.408192 4.83256 255 250 213
1.238121 1.090932 4.025409 65 44 32
1.674327 0.7915891 4.063841 255 246 238
2.118587 -0.9688749 4.519562 148 105 115
-0.2488781 -2.400101 0.3154505 189 48 49
-1.299144 0.4633402 2.956171 24 24 24
0.9801781 0.7685677 2.427401 8 12 8
1.939867 -0.9775831 1.875591 172 202 213
1.015467 1.483251 2.781482 32 32 32
1.108785 1.522469 3.052954 32 32 24
2.295602 -1.038127 3.247717 246 255 255
2.068672 -0.4360801 3.16938 255 255 255
0.1358908 -0.115738 0.8911859 16 12 8
0.4886887 1.969699 1.174599 189 194 123
-2.979496 4.318127 1.698444 131 125 131
-2.672987 3.685829 3.346307 205 202 205
-2.632853 3.587053 1.091074 189 174 172
-2.592268 3.52816 0.3256837 255 230 172
-2.403234 2.964216 1.1726 238 226 222
1.797506 -0.7759344 1.287078 148 190 197
0.3509445 2.277117 1.252131 24 24 24
1.752057 -0.730947 0.4293824 82 105 106
-0.8108876 -0.7014208 2.944808 49 48 41
-0.1434133 -2.484643 0.8991708 180 186 180
2.13493 -1.154958 4.144809 164 174 172
1.612338 -0.1641951 2.795807 41 36 41
1.37633 -0.7446176 2.429709 32 32 32
1.627188 -0.7931315 1.98252 57 64 65
1.128068 0.4074584 0.834806 255 226 164
2.284758 -1.45742 3.745568 238 246 255
1.9374 -0.958138 2.223645 148 194 213
-0.1953228 -1.765575 0.2928591 197 214 230
1.951949 -0.9216387 0.4801055 148 186 189
0.9974319 0.6838081 0.8794371 0 0 0
1.031972 0.86132 2.385242 41 36 32
2.122997 -0.9727769 2.259285 148 182 189
0.5670085 -4.282421 3.221326 213 210 213
0.5101382 -1.252495 2.462215 16 16 16
1.527302 0.04391073 2.977218 8 8 8
1.869743 -0.7212769 1.041446 41 72 74
-2.244657 2.6072 0.7786782 156 153 148
-2.373889 2.847562 1.099157 123 121 115
0.520382 2.535014 1.983426 106 113 106
1.834643 -0.6683968 5.070578 230 222 213
1.730646 -0.1585148 4.625014 24 24 24
1.274782 1.341357 4.040891 148 153 156
1.430769 1.127997 3.40654 90 89 74
1.889409 -1.525148 2.340213 180 182 189
1.66071 -0.2761317 2.97408 8 12 8
1.636103 -0.7270134 0.3784631 139 165 164
-1.343997 0.6133941 2.921998 41 32 24
-1.27193 0.4260488 2.871281 8 8 8
2.250424 -0.9163497 3.177645 106 105 123
0.9765245 0.8193819 0.7242937 74 56 41
1.866153 -0.5957058 3.02905 32 36 24
2.178644 -0.7006522 3.215565 123 117 123
-2.55521 3.438555 1.081596 148 145 139
-1.535921 1.04766 2.944623 57 56 32
-2.474727 3.216566 0.7462799 189 170 172
-2.526014 3.148971 2.873655 189 44 65
-2.796151 3.903878 4.778631 205 238 246
-2.575338 3.275507 2.757167 230 64 82
-2.547513 3.291276 2.022466 246 68 82
-2.344974 2.91111 0.9463263 180 170 164
2.221933 -0.7647228 3.190797 255 255 255
0.5538279 -1.291093 2.641016 16 20 16
1.90815 -0.7966564 0.4477217 131 170 172
-1.544636 0.9559213 1.237216 123 113 106
-0.2494197 -1.73195 1.919068 57 76 98
2.48124 -0.9202973 0.7429571 189 234 106
2.234426 -1.697483 0.3019015 49 56 24
2.975229 -1.056909 0.8346875 98 170 0
1.759287 -0.760903 1.33876 189 214 213
1.988311 -0.4748117 3.80552 41 32 41
1.872099 -0.8012285 1.257757 246 246 255
1.491248 -6.238692 4.388358 255 246 246
1.897412 -0.9807081 1.689948 222 242 255
1.920441 -0.8846166 1.270933 172 202 213
0.7964588 -5.564233 4.035741 238 218 230
1.790496 -0.8065637 1.285711 123 161 172
1.156032 0.4203634 2.447321 57 48 41
0.4759853 2.661573 0.9469026 255 255 255
0.3294645 2.251905 1.147434 65 56 57
-2.281718 2.647075 1.939778 222 226 230
-2.346397 2.840492 1.753176 172 52 65
1.892737 -0.8109069 0.7615639 156 186 189
0.8079285 -4.792927 3.13188 213 206 205
1.893494 -0.8579652 0.09214915 148 198 197
-0.7171293 -1.348167 0.3058366 156 141 106
-1.563367 1.11265 2.957708 16 20 16
-0.8388935 0.9748077 3.060273 148 109 82
-0.001771621 -1.538571 2.594992 8 8 8
0.03160211 1.91743 1.137501 49 68 74
0.8080902 1.12522 0.9643977 16 8 8
1.710024 -0.3999175 4.959348 246 246 246
4.596612 3.376073 -0.1399492 57 56 57
4.603995 3.382093 -0.1234201 49 48 49
4.608037 3.372462 -0.1349884 90 93 98
3.683107 -0.08226206 0.5299773 82 85 49
4.454401 0.303722 0.7829799 172 222 74
-1.109362 0.03061921 2.830962 74 64 49
0.852235 -1.173629 2.570684 16 16 16
2.072167 -0.4096027 3.216912 123 129 139
0.812477 1.832263 2.736713 115 125 148
-1.651612 1.354406 3.004957 24 24 16
-0.5195693 -0.5012397 3.03538 24 24 24
1.048867 1.394305 2.944896 24 24 16
1.924621 -0.88353 1.721905 197 226 230
1.642127 -0.1919815 2.743189 41 36 41
0.7205954 1.946191 2.920096 16 16 16
-0.7995626 -0.8090753 2.853471 8 12 8
0.7335159 -4.910576 4.569581 82 121 131
4.298158 2.511845 -0.2414099 24 24 24
-0.6848959 -1.167434 2.542563 24 24 24
-2.960104 -0.4891284 3.066825 32 28 24
0.6999003 1.385238 1.021175 16 12 8
-0.5937642 0.1203184 2.968031 24 24 24
1.004156 1.398864 2.906156 24 24 24
1.021389 0.6256086 0.7354782 0 0 0
-0.2749462 -1.620658 -0.05849272 106 137 131
2.3745 -1.326232 3.745631 246 255 255
0.413685 2.822556 0.1489309 98 161 172
0.492002 1.945833 1.074455 205 161 115
0.3489347 2.899615 -0.05957904 98 157 164
0.3970084 1.921387 0.9288201 8 8 8
0.7805541 4.167565 1.13579 98 89 74
0.4984393 2.766486 1.097224 106 141 148
0.7867361 4.151102 1.122194 106 89 65
0.4253691 2.714916 0.01224788 74 133 148
-2.14778 2.565584 2.61424 230 230 230
0.4227298 2.806626 0.3738117 156 206 213
0.2351609 2.923642 0.2897404 139 153 164
0.3248368 2.875739 0.006383561 164 214 222
0.4527257 2.562578 1.413264 238 246 246
0.4828313 2.669764 0.8390262 172 206 213
0.4906661 2.618989 0.7256174 205 226 230
0.6204628 1.582183 0.9264826 65 24 24
0.6344973 1.618727 1.157411 205 206 148
-1.559725 0.5065438 2.720586 57 44 41
-1.543631 0.6071656 2.72542 115 93 65
0.4652345 2.595426 0.5563819 189 222 230
0.424126 2.778818 0.3553539 115 157 172
0.3592227 2.905149 0.7827122 115 153 156
-2.396363 2.806693 3.08834 139 48 49
-1.803624 1.194829 1.067475 156 190 222
-1.755785 1.101133 0.7306786 172 153 98
0.4845138 2.641565 0.1116451 172 210 222
0.4714116 2.678972 0.3833799 156 206 222
0.3697577 2.90736 0.7646144 131 170 180
1.014741 2.691507 0.7603058 213 214 222
0.4744785 2.683422 -0.03467995 164 226 230
0.3680931 2.86904 0.524359 164 190 189
-2.361131 2.61486 0.1642757 74 60 49
-2.935232 4.128712 1.191952 106 101 106
-2.6824 3.536367 1.122297 115 113 115
0.4103168 2.842128 0.8625764 205 222 230
-1.444004 0.8546607 2.992183 8 8 8
-1.585533 0.9748949 -0.2877446 131 113 115
-2.821028 3.783676 0.6849845 82 32 41
-3.022323 4.42902 1.79322 148 153 156
0.4424538 2.545503 0.04791607 164 198 213
-2.944753 4.149189 2.261342 123 117 123
-13.21805 -8.717625 2.520476 0 4 0
-1.582812 0.9837883 0.9611152 164 161 164
-1.59024 0.9834545 0.204423 205 194 197
0.4611027 2.685925 0.7440557 156 194 197
0.4774375 2.664195 0.7238771 148 186 189
0.3511988 2.958116 0.7502028 131 170 189
0.4562488 2.576365 0.2920349 164 206 213
-1.267517 0.4456402 2.902323 82 64 57
-1.601495 1.006853 -0.06605295 180 170 164
1.028993 2.689676 0.483196 172 165 164
0.52052 2.565653 0.9285274 123 178 180
0.4898121 2.56676 -0.2112065 148 198 213
0.6658646 2.748541 0.07754407 90 141 148
0.3691588 2.922973 0.9392017 123 170 172
0.3791893 2.883279 0.616182 139 186 197
0.5030915 2.578562 0.6298537 139 165 172
0.4539211 2.673049 1.394612 246 250 255
0.4570447 2.727465 1.070077 197 222 230
-2.982248 4.27948 0.2188437 172 170 164
-3.00715 4.56485 -0.5398111 82 64 65
-1.557776 1.003526 1.327211 74 76 74
0.4450101 2.786635 0.4180583 98 153 164
-1.547592 0.987709 1.346793 172 170 164
-1.14027 0.1856428 3.034364 98 109 90
0.4535635 2.715934 0.1730078 115 145 180
-2.324842 3.130286 3.218755 238 230 230
0.4725349 2.646354 0.6633681 131 170 164
0.4591879 2.642109 1.356002 164 182 189
-1.362095 0.695494 3.036162 65 68 57
-1.355571 1.495853 -1.279931 106 109 98
0.42174 2.501653 0.4290972 156 194 213
-2.998987 4.312248 1.962506 197 194 197
-2.578978 3.190351 2.818229 205 36 49
-0.2327062 4.676049 -0.4216457 123 109 115
-0.4519964 4.319438 0.0743629 74 28 32
0.3941315 2.854693 0.6415263 41 56 57
0.6991798 1.180777 0.939041 255 246 172
0.4610676 2.722986 0.8424037 213 234 238
0.4040265 2.796558 1.279901 205 222 238
0.7644933 1.25029 0.7375513 65 28 24
0.5230777 1.427387 2.483852 32 28 16
-0.9013101 -0.7012256 2.697516 172 141 123
0.9606551 1.285136 0.9175237 230 182 139
-0.987733 -0.2928595 2.76361 74 44 41
-0.8104325 0.4651314 3.03792 90 60 41
0.3776008 2.818153 2.001884 90 113 106
0.4060723 2.802887 0.4718623 65 113 131
0.6768803 1.514462 1.10063 131 141 57
-3.10021 3.80064 4.688351 115 113 148
0.3907689 2.835742 0.8588414 98 137 139
-1.582619 0.9802361 0.5699629 172 161 172
0.4363506 2.748252 0.3169805 148 190 205
0.4292262 2.739219 1.33174 139 165 172
0.3556042 2.926291 0.9068297 164 202 205
0.4797962 1.635161 1.076545 16 20 16
0.7005754 1.45079 0.7151864 255 250 90
-1.084227 0.2715309 3.052916 32 28 24
0.7777253 1.248778 0.7593282 49 28 16
-0.5762036 1.365337 3.07415 90 60 49
-0.9204732 1.115723 3.079342 65 60 49
-3.004635 4.335251 -0.272603 90 89 90
0.4112128 2.842147 -0.1399202 115 165 180
0.6490669 1.523551 0.7931847 230 198 156
0.4959029 2.609643 0.8397005 106 125 123
0.7568983 1.239165 1.043907 65 44 32
-1.644495 0.9896581 0.3648624 164 161 164
-1.562545 0.8508835 2.696754 41 32 24
0.3653991 2.883215 0.4180278 156 178 189
0.6494964 1.497168 0.7678743 32 16 16
-1.250898 0.4273481 3.0059 16 16 16
-0.4460518 0.9623873 3.032881 32 24 16
-1.05565 1.010045 3.068977 49 64 65
-2.491142 3.152785 3.559953 180 182 180
0.6371967 1.484194 0.9815259 255 198 139
-13.11149 -8.646624 2.709168 0 0 0
-2.580862 3.296928 0.7630816 123 121 123
0.4456351 2.868389 0.7847217 65 85 90
0.4907274 2.63272 0.7239345 197 222 230
-1.737185 1.333478 1.052413 115 141 148
0.2542288 2.858678 1.70141 230 230 230
0.4631476 2.679686 1.814087 213 222 222
-0.362368 4.390064 0.05980198 123 121 115
-1.577481 0.9815009 0.4253528 131 137 139
-1.605831 0.8231087 2.690398 8 12 8
0.5475196 1.750307 1.015871 255 242 213
-2.897902 4.094962 1.059013 246 238 238
-1.627847 1.064779 -0.5080166 180 170 164
-2.6311 3.322325 2.350412 189 60 65
-2.53318 3.456167 0.356321 41 36 24
-1.678826 -1.485358 0.6878096 0 4 0
-0.1217113 -0.3594 3.002486 41 32 24
0.4917997 1.73186 2.470706 82 28 16
0.4116692 1.940285 2.482797 139 72 49
-0.3714112 1.201719 3.064486 57 68 65
0.4493498 1.889895 2.480582 131 89 65
-0.9628484 1.591399 3.086804 65 89 90
0.4714162 2.640376 1.953328 238 238 238
0.2833863 1.918857 2.50793 57 52 41
0.8787933 0.9969807 0.7186963 41 28 8
-13.39392 -7.769415 2.655727 8 8 8
-1.59885 1.05305 1.191238 106 113 115
-1.590144 1.016629 1.11311 189 170 172
0.5177901 2.555445 0.8075437 156 194 197
-2.803937 3.905314 3.874999 131 133 139
-2.79609 3.890947 3.29267 164 161 164
0.4279915 2.712726 0.2751921 131 174 189
-0.4440808 1.156189 3.059059 65 85 90
0.4238648 2.766878 0.5657204 164 194 205
0.4316375 2.733529 0.3656337 172 214 222
0.4355334 2.746303 0.7072448 156 194 205
0.4273487 2.793928 1.014864 213 234 238
0.4391951 2.732141 1.419659 238 246 246
-0.828329 1.510084 3.112535 57 80 90
0.4093351 2.71724 1.856888 213 226 238
-1.608259 1.130722 1.242672 106 133 139
-1.665179 -1.485243 1.132107 32 28 16
-0.2339343 1.07329 2.758522 82 64 41
-1.558246 1.089668 2.827679 32 36 41
-0.2337555 2.872821 -0.3916432 90 137 148
-1.261402 1.098511 3.074094 57 80 82
-1.564678 0.9670931 1.160236 172 153 156
-0.3265175 1.21314 3.064794 32 36 32
0.6882198 1.365108 2.465792 164 72 65
-2.936459 4.230935 1.457974 230 226 230
-0.6997902 0.9841159 3.069417 57 68 74
-0.7097509 0.9384884 3.056215 57 76 74
0.5659519 1.73572 1.168868 98 101 82
-2.815667 3.775124 2.787154 123 44 57
-2.447869 2.802907 1.228608 98 28 32
0.4412025 2.776176 0.9764286 90 121 131
1.00752 1.293008 2.691143 139 161 189
0.6950361 1.396862 0.976623 57 32 32
0.4750941 2.823006 2.348236 82 89 98
1.251774 0.5402084 2.521795 82 48 49
1.183565 0.8563334 2.820271 57 52 49
1.003544 1.247436 2.968562 65 64 57
0.2494095 2.08402 1.118395 82 89 90
0.2107086 -0.7380248 3.018495 65 60 49
-0.05700859 -1.015798 3.019672 205 161 139
1.015 1.151112 2.56473 90 72 82
-0.6747648 -1.188714 0.9801208 131 137 148
-0.1602213 -0.6848696 3.030398 82 68 65
0.9253478 1.569303 3.036526 65 60 57
-0.100061 -0.6744736 3.030002 90 76 65
0.8083526 1.240308 2.466216 24 16 16
-0.3273579 1.449015 3.037102 57 60 65
0.7250791 1.690059 2.47116 131 72 57
-2.817784 3.918508 4.722311 180 198 197
-2.807804 3.995012 4.794332 106 137 172
-1.265048 0.7306487 3.056235 24 24 24
-3.06095 3.874717 4.571406 82 97 98
0.9548969 1.47797 3.040865 16 20 16
1.019338 1.11058 2.533318 57 48 49
0.8179581 0.8633462 2.476835 32 20 16
1.158149 0.8375668 2.835237 172 149 156
0.825068 1.686852 2.944788 205 174 115
0.8209293 1.774971 2.685568 123 129 131
0.8924075 1.450645 2.534324 213 214 222
0.9584142 1.475951 2.689033 139 117 106
1.458691 0.3522782 2.876759 74 85 90
-3.127769 4.190353 5.432527 255 255 255
1.035932 1.236526 2.75024 139 149 164
1.353265 -0.02342449 2.429642 123 93 82
1.475757 0.2233293 3.008996 41 36 41
-0.5077418 1.280045 3.067213 139 93 74
-0.1447619 -1.795663 2.308749 32 44 41
0.4517139 2.565071 0.312992 172 198 205
-0.6668262 -1.363624 0.2304658 123 97 82
0.4754554 2.617367 0.05621564 172 210 213
-0.6527002 -1.504418 0.1599385 90 80 65
0.7406129 2.046295 2.930366 98 80 57
1.149733 0.9389584 2.799743 115 121 123
0.3760709 2.832709 2.530541 172 165 156
0.9991555 1.410646 2.723279 139 149 164
-0.2507783 0.6676294 2.997938 90 64 57
-0.2861713 0.3657977 2.956051 16 12 8
-1.613148 1.051769 1.159399 156 153 156
1.191873 0.05541196 2.4357 156 68 65
-0.297198 0.9376819 3.035324 41 28 16
-1.462999 0.9897199 3.060146 24 24 24
0.8786811 1.562388 2.620953 24 24 24
0.6420197 2.161746 2.626914 32 36 32
-1.766188 1.203629 1.011288 172 206 238
0.700878 2.071618 2.824106 197 161 164
-1.678906 1.636009 -0.01603201 164 198 213
-2.302624 2.702498 3.089725 172 113 115
0.8574053 1.610497 2.614109 49 44 41
1.053039 1.156191 2.608096 41 44 41
-2.593516 3.276376 2.680532 148 32 41
0.6844617 1.958168 2.595165 32 36 41
-2.860349 4.072877 3.267374 148 149 148
1.218266 1.050033 3.079376 41 44 32
0.871419 1.616428 2.955012 32 32 32
0.4410846 2.863998 2.658197 131 161 172
1.158578 0.702917 2.562217 82 60 57
-1.611108 1.046688 0.5457664 230 222 222
0.9712533 1.12637 2.476324 106 105 90
0.5959572 2.419446 3.074217 82 85 74
-0.3629241 0.74419 3.003554 180 93 82
-0.0926358 -0.631511 3.026548 24 20 16
0.4459914 1.936184 2.459912 106 64 57
0.7119461 2.078389 3.056905 49 60 57
-0.9386959 1.041319 3.081667 74 64 49
-1.702639 1.580462 0.4112772 156 190 197
0.6492295 2.056778 2.5999 41 52 74
0.4419202 2.717676 0.4725026 189 218 222
0.7187786 2.108761 2.736646 131 145 156
0.4353945 2.743387 1.875105 205 222 230
0.8956424 1.596219 2.855265 148 105 115
0.8507971 1.469018 3.066001 74 40 32
0.6648958 1.823462 2.480428 189 121 98
-0.7066461 1.506617 3.090946 57 89 90
1.225019 0.606829 2.560382 180 182 197
-0.1646337 0.5083295 2.996951 98 48 41
-1.642232 1.006544 1.038078 164 153 156
1.434995 0.3305029 2.922427 65 68 74
-0.7142538 -1.086331 0.9391141 230 218 222
-8.1954 -4.600145 8.430933 49 48 41
-2.779874 4.044564 4.028929 148 153 148
-0.8385724 1.505711 3.079351 65 93 98
0.8128144 1.76543 2.804368 115 109 106
-1.541404 0.9124557 2.754219 41 36 32
0.5316383 2.519045 2.717416 16 16 16
-2.271467 2.618867 3.339036 172 165 164
-2.89975 4.157866 3.502117 164 165 164
-2.716982 3.704836 3.495523 172 170 172
0.9856299 2.680699 0.306127 230 206 197
0.642651 2.260805 2.688159 65 68 82
0.5408857 2.622087 3.009254 16 16 16
1.160545 0.8658581 3.058166 41 44 41
0.7751395 1.86863 2.478454 180 174 172
1.245344 1.267944 3.080393 41 44 32
0.09744249 -0.769713 3.009038 106 125 131
-0.7186716 1.247268 3.066165 24 24 16
1.217636 0.5075609 2.450392 16 16 16
0.6387236 2.250228 2.946555 115 101 106
0.5569621 2.40025 2.852267 205 165 172
-1.343233 0.7036174 3.047363 74 76 57
0.3659628 -1.385945 2.647296 24 20 16
-0.5476648 -1.393252 2.695278 16 12 16
0.461428 2.584257 0.4984031 115 153 164
-0.4629451 -1.490543 2.976393 49 56 49
1.402734 0.3602182 2.679327 57 48 41
0.1789904 -0.6950321 3.010643 74 68 65
0.6602017 2.238622 3.076471 65 68 57
-0.2060391 -1.728728 0.6626213 180 202 205
0.9825398 1.675905 3.063298 57 60 41
0.8294258 1.755512 2.656575 180 210 213
-0.2177946 -1.690061 0.3518314 98 137 148
-1.181661 0.2493259 2.723394 16 20 16
-0.7015479 -1.148867 0.5646886 148 149 156
0.4858657 2.641936 0.7814236 82 113 106
-2.64659 4.032425 4.991593 255 255 255
-0.3425935 0.7100476 2.997219 139 52 49
0.8405717 1.074935 0.6893488 0 8 0
0.01254446 -0.7628783 3.019606 98 93 98
0.5895926 2.276154 2.625205 123 68 65
0.5946752 2.178579 2.551407 222 214 238
0.6710336 1.49376 0.8996373 255 238 222
0.5118675 2.451266 2.64898 115 105 49
0.05157889 3.002185 3.105523 123 125 106
-0.1387848 -1.89768 0.7285699 98 133 131
-0.2182422 -0.8606151 3.017492 205 145 131
-1.614721 1.654609 1.210512 148 174 180
-1.584828 1.65685 1.054835 156 186 180
1.083221 1.035249 2.583863 98 129 131
-1.587108 1.689793 0.7375799 180 210 213
1.900731 -0.8496167 1.925447 197 222 213
-7.045115 -2.557047 3.035762 16 16 8
-1.006797 0.6558725 3.060203 41 52 57
0.7281679 1.838146 2.493213 139 125 115
0.9165862 -5.712906 5.027207 255 250 255
-0.7118124 -1.073881 1.045488 172 170 172
-0.3135015 -0.9785444 3.013277 24 32 32
1.812269 -0.619183 2.594031 213 182 180
-0.5357346 -1.261843 2.932753 24 24 24
-1.59009 1.673573 1.056836 115 145 156
0.4663444 2.691499 0.3406878 131 186 197
-1.687329 1.615683 0.295652 139 170 189
-0.6893488 -0.6402289 3.028023 49 44 32
0.6920593 2.125761 2.901117 65 68 49
-1.582015 0.9697832 0.6450724 222 214 213
1.034363 1.002096 2.464478 98 97 82
-12.75766 -8.107224 1.546749 90 68 57
0.4106154 2.75484 1.390675 131 174 172
-2.362419 2.737355 2.746247 148 32 41
1.242227 1.383104 3.060466 49 44 41
1.64942 0.2483703 3.024137 57 60 49
1.670506 0.5420597 3.038618 49 56 41
1.932197 -0.8625214 0.3067037 115 153 156
1.773742 -0.694257 0.5144096 106 129 123
1.70619 -0.7591496 1.595781 172 198 189
1.543724 0.02022805 2.983209 57 60 65
1.042306 -5.435827 3.519561 205 202 205
-0.08023083 -0.6213725 3.01995 0 4 0
0.5799756 -1.288541 2.786285 0 0 0
-1.67683 1.655089 1.310012 172 210 213
-1.589049 1.646126 1.099218 123 137 156
-1.637831 1.453752 3.106196 32 28 16
-0.7555001 0.6466461 3.03575 82 56 32
-0.5600702 -1.665428 2.217005 32 40 32
2.072296 -1.072051 4.417775 115 93 90
-1.602805 1.646861 1.143084 24 32 41
1.509138 -0.852044 2.078284 41 48 41
1.858052 -0.7923676 0.7943452 131 174 172
1.884402 -0.9257709 2.490807 156 149 139
1.942914 -0.9010531 2.107499 164 186 189
1.987528 -0.8709673 2.30517 156 178 180
1.959305 -0.9064726 0.4555403 148 190 197
1.715213 -0.7355074 0.5476513 24 28 24
1.952443 -0.9240119 0.7223436 131 174 172
1.85345 -0.7555603 2.016056 180 206 213
1.919398 -0.587519 2.246852 148 182 180
1.889844 -0.8514141 0.8617973 172 206 213
1.701965 -0.7652864 2.102574 82 93 90
-0.2988154 -1.007675 3.051729 65 52 49
0.255399 -0.2995206 2.992788 148 101 65
0.4022401 -0.740696 3.029829 65 56 57
1.847801 -0.7029019 1.973879 205 226 238
0.951645 0.7841737 2.436854 16 16 16
1.21822 0.280993 2.426071 49 40 41
1.070326 0.3346255 2.43471 115 64 49
-0.4208432 -0.00340721 2.974593 180 125 106
0.956612 0.8046799 0.8813109 0 4 0
0.9409545 0.8809262 1.031954 82 97 49
1.267382 -0.257558 2.421237 115 52 57
-0.189947 -1.458929 3.031549 106 68 32
1.890653 -0.5906909 2.275827 32 44 41
1.794333 -0.7532945 0.3536062 115 153 148
1.625592 -0.7253677 0.3976471 115 133 139
1.910322 -0.836612 1.905638 180 206 213
-0.03051742 -0.616067 3.009878 24 24 24
1.516805 -0.8166153 1.50237 57 60 65
-1.5534 1.812339 2.518577 57 40 32
0.5528171 1.764779 1.17339 32 52 24
-1.622351 1.892606 2.42367 57 52 49
-0.8852032 1.91136 2.508505 115 101 90
-0.8326529 1.729104 3.095697 106 72 24
-1.689519 1.518073 2.790663 8 12 8
-0.7573215 1.935779 2.507478 131 129 106
0.8384237 0.9658096 0.8656512 24 16 16
-0.3967529 1.188472 3.056607 106 125 131
0.7310101 1.106511 2.455971 164 60 49
-0.460772 0.9519119 3.044035 41 28 16
0.8562735 1.014434 1.118198 49 64 24
-0.8550825 -0.5751475 2.738633 8 12 8
-0.1779361 0.7147548 2.984614 65 56 49
-0.7627791 -1.085586 2.421789 16 16 16
-1.543447 0.8539304 2.764149 24 20 16
0.9845435 0.686328 1.041093 16 12 8
-0.9360734 1.85491 2.845589 8 8 8
-1.130101 0.3111752 3.046887 32 36 32
-0.6676387 -0.8450691 3.057146 32 32 24
-1.665309 1.647709 1.704102 41 52 49
1.039097 1.26646 2.762332 115 117 106
1.039766 0.1477347 2.450881 32 36 32
-0.6540385 0.7166744 3.006482 16 20 16
1.237273 0.6145225 2.506464 205 198 205
0.05430122 -0.4184941 3.025215 90 52 32
-0.1148243 0.7556144 2.969266 115 48 41
0.8133916 1.202642 2.455063 131 68 57
0.1918315 0.008400871 3.012131 148 76 65
1.270375 0.5291114 2.459707 180 161 156
0.8775491 0.9509925 0.7626236 115 85 57
-0.8387661 -0.655713 2.902546 41 48 49
-0.5396671 1.874566 3.078074 24 20 16
0.388061 1.828452 2.484215 65 48 41
-0.4626676 1.381676 3.073161 82 72 65
-0.3940999 -0.9751115 3.033389 90 113 123
1.594184 -0.06478637 2.632155 156 190 205
1.244569 0.6354906 2.597995 115 76 98
1.363613 0.1897258 2.449275 98 97 82
0.8998309 0.9744916 1.112461 131 113 57
-0.242696 1.224144 3.057135 106 121 139
1.221233 0.772341 2.855361 131 121 131
-1.145276 -0.5731197 2.697029 189 153 131
0.8281503 1.601394 2.527748 205 206 213
1.100786 1.081979 2.998713 82 56 49
-0.8252065 1.754323 3.095929 139 109 57
1.361538 0.1843396 2.452497 98 93 82
0.8839145 0.7833588 2.444603 131 68 65
-0.4216023 1.069161 3.094903 98 117 123
0.9369671 1.343002 2.573778 197 182 180
-0.6076872 -0.1711349 3.011476 90 52 32
-0.5967501 0.6266432 3.029694 115 72 65
0.5472507 1.76839 2.472182 74 36 24
-1.367903 0.6821402 2.861085 16 20 24
1.030845 1.292356 2.724582 41 48 49
1.193812 0.8794947 2.893868 41 36 41
-1.56094 0.9743738 2.64144 49 40 24
0.709016 -4.646228 3.532801 197 194 197
1.917164 -0.8320761 0.5164477 139 178 180
1.134682 0.4085923 0.6539468 189 149 24
3.052558 0.03223828 1.137279 139 170 98
3.008788 0.02973417 1.214986 164 170 172
-0.7158476 -1.169419 0.431147 115 109 115
1.864574 -0.7980505 1.146242 213 234 238
-15.22384 -4.093885 1.957368 0 4 0
1.007793 0.6626322 0.7951532 24 24 24
0.8664561 0.9287771 0.9723893 8 8 8
1.174984 0.549979 2.449838 139 72 57
-0.7765176 -1.030168 -0.1605964 205 202 197
1.317531 0.4298671 2.468464 180 178 172
1.189557 0.2513781 1.029512 164 170 164
1.990417 -1.074251 2.129609 197 226 222
1.936883 -0.8933358 -0.2463173 148 182 189
-0.7035054 -1.136156 0.4903865 230 226 230
1.55633 -6.537461 4.126145 238 222 180
-0.0931043 -1.9003 2.39596 8 12 8
-0.1442465 -1.912363 2.278191 41 52 49
-0.6852346 -1.156339 1.962178 74 68 74
0.4378656 2.512796 0.2552481 164 206 213
-0.9338565 2.079695 2.489276 189 105 82
